ncols        660
nrows        31
xllcorner    -71.395600000000
yllcorner    41.365300000000
dx           0.008329545455
dy           0.008340438247
NODATA_value -32768
250 241 252 279 270 226 209 235 242 225 239 225 212 203 192 180 171 204 212 243 272 278 259 253 280 320 290 265 267 277 259 259 255 248 232 250 288 250 271 196 195 191 151 94 77 85 99 117 101 78 78 95 110 113 105 86 95 102 100 90 80 95 95 106 105 97 87 87 93 110 118 113 107 117 129 132 132 107 78 75 79 78 75 73 63 60 66 63 63 66 65 66 66 51 51 48 42 44 37 30 23 16 14 14 11 7 11 12 12 8 10 11 18 19 3 -2 -2 -9 -20 -35 -40 -43 -43 -49 -46 -45 -44 -42 -41 -41 -39 -40 -39 -42 -48 -54 -57 -58 -65 -63 -67 -70 -77 -81 -86 -106 -105 -94 -94 -101 -104 -97 -89 -73 -110 -129 -135 -139 -145 -152 -149 -144 -138 -157 -161 -164 -162 -171 -168 -174 -165 -166 -167 -159 -158 -158 -163 -153 -154 -151 -154 -154 -162 -166 -162 -168 -169 -168 -165 -160 -159 -160 -160 -161 -161 -161 -160 -159 -159 -160 -161 -164 -166 -169 -171 -172 -172 -170 -168 -167 -166 -166 -165 -164 -164 -164 -164 -164 -165 -166 -167 -167 -167 -167 -167 -167 -168 -169 -172 -173 -174 -173 -171 -170 -169 -168 -169 -169 -170 -170 -170 -170 -171 -169 -169 -169 -167 -167 -166 -165 -165 -164 -164 -163 -161 -160 -159 -159 -159 -159 -158 -157 -155 -155 -155 -155 -157 -155 -158 -160 -165 -165 -163 -159 -155 -151 -150 -152 -155 -160 -162 -159 -157 -156 -158 -155 -149 -142 -146 -148 -146 -140 -131 -127 -123 -122 -119 -115 -119 -111 -105 -103 -104 -105 -107 -108 -111 -114 -114 -114 -116 -115 -114 -111 -110 -109 -105 -96 -87 -79 -93 -103 -110 -120 -123 -128 -132 -143 -140 -142 -143 -145 -150 -154 -156 -158 -163 -166 -169 -171 -173 -175 -176 -177 -178 -177 -177 -180 -183 -185 -186 -186 -185 -184 -183 -182 -184 -186 -188 -187 -184 -180 -177 -174 -172 -168 -165 -162 -163 -166 -169 -172 -173 -174 -175 -176 -177 -178 -180 -183 -186 -188 -189 -191 -193 -195 -195 -196 -198 -200 -202 -203 -207 -209 -211 -213 -215 -218 -221 -224 -227 -231 -233 -235 -236 -238 -239 -240 -240 -241 -241 -242 -243 -244 -244 -245 -245 -245 -245 -245 -245 -244 -244 -242 -241 -240 -235 -230 -232 -234 -231 -236 -243 -252 -259 -264 -265 -267 -268 -268 -265 -258 -255 -251 -247 -244 -244 -243 -242 -240 -237 -235 -233 -231 -230 -228 -226 -223 -219 -214 -209 -208 -201 -192 -204 -197 -187 -173 -162 -168 -173 -180 -184 -187 -187 -190 -198 -197 -198 -191 -184 -185 -180 -182 -184 -186 -192 -203 -179 -191 -195 -199 -198 -202 -205 -199 -198 -212 -215 -214 -210 -209 -208 -212 -219 -221 -222 -224 -225 -228 -230 -229 -229 -229 -222 -214 -211 -206 -206 -199 -196 -193 -192 -186 -185 -182 -180 -183 -185 -188 -191 -190 -196 -202 -198 -200 -199 -201 -200 -199 -195 -193 -194 -202 -184 -183 -177 -175 -169 -169 -169 -166 -163 -158 -154 -149 -145 -140 -136 -133 -132 -129 -125 -122 -116 -113 -110 -107 -103 -102 -100 -97 -96 -95 -95 -94 -94 -94 -95 -95 -97 -97 -95 -91 -89 -83 -79 -73 -69 -66 -64 -62 -60 -59 -59 -59 -60 -60 -60 -60 -60 -60 -60 -60 -60 -60 -60 -60 -52 -56 -60 -62 -64 -67 -61 -62 -64 -75 -95 -81 -67 -62 -65 -71 -66 -61 -49 -46 -47 -49 -45 -41 -35 -44 -56 -57 -50 -50 -48 -41 -36 -32 -30 -24 -22 -18 -13 -10 -10 -14 -19 -22 -26 -23 -20 -20 -21 -21 -20 -19
240 235 239 261 258 220 198 202 214 204 193 199 194 197 181 170 185 210 211 216 219 227 237 232 240 269 265 273 258 245 259 261 261 252 246 239 281 249 214 194 178 173 159 116 81 76 86 84 77 73 73 77 99 96 87 77 82 98 105 92 84 93 93 98 100 97 85 78 80 88 104 116 107 92 101 104 95 86 75 72 74 68 71 71 63 62 76 61 62 61 60 62 58 53 55 55 46 40 40 34 18 16 10 9 10 3 2 6 4 2 1 10 11 3 -2 -6 -10 -14 -28 -41 -45 -32 -35 -45 -50 -44 -45 -45 -44 -44 -41 -42 -42 -42 -51 -60 -68 -63 -68 -67 -75 -83 -73 -77 -85 -114 -102 -91 -99 -106 -108 -103 -96 -99 -116 -129 -139 -138 -147 -152 -153 -154 -147 -152 -160 -166 -160 -166 -169 -175 -164 -160 -160 -154 -154 -151 -149 -144 -141 -143 -146 -157 -168 -171 -172 -170 -173 -172 -171 -162 -163 -164 -165 -167 -167 -165 -164 -163 -162 -162 -164 -168 -171 -175 -178 -179 -177 -174 -172 -171 -169 -168 -167 -166 -165 -164 -164 -164 -166 -167 -169 -169 -169 -168 -167 -167 -168 -171 -175 -177 -177 -175 -173 -171 -170 -169 -169 -170 -171 -171 -172 -172 -172 -170 -171 -170 -169 -168 -167 -167 -166 -166 -165 -164 -162 -160 -159 -158 -159 -159 -159 -157 -156 -155 -155 -156 -157 -156 -158 -160 -163 -163 -163 -157 -151 -147 -147 -147 -151 -156 -157 -155 -155 -154 -154 -150 -146 -142 -146 -148 -146 -140 -132 -126 -122 -121 -119 -120 -125 -123 -115 -112 -110 -108 -109 -112 -115 -119 -118 -118 -119 -117 -117 -116 -114 -113 -109 -103 -96 -94 -102 -110 -116 -129 -126 -130 -134 -140 -140 -143 -144 -147 -152 -156 -159 -163 -171 -174 -175 -177 -178 -179 -179 -180 -180 -180 -181 -182 -184 -186 -186 -185 -183 -183 -183 -183 -185 -186 -186 -184 -180 -176 -172 -169 -167 -165 -162 -160 -163 -166 -170 -173 -174 -175 -176 -176 -176 -178 -181 -185 -188 -190 -192 -192 -194 -196 -197 -198 -199 -201 -203 -205 -207 -209 -211 -213 -215 -217 -221 -224 -227 -230 -232 -234 -231 -237 -238 -238 -238 -240 -241 -241 -242 -242 -243 -244 -243 -243 -243 -243 -242 -242 -242 -240 -237 -235 -233 -231 -232 -233 -233 -236 -243 -251 -257 -261 -263 -265 -267 -267 -264 -259 -257 -252 -248 -245 -245 -244 -243 -240 -237 -235 -233 -230 -230 -228 -225 -222 -218 -213 -210 -204 -198 -190 -196 -193 -186 -170 -151 -165 -171 -177 -185 -188 -190 -191 -194 -192 -188 -183 -182 -179 -175 -180 -186 -200 -207 -209 -190 -185 -192 -195 -193 -198 -204 -201 -205 -215 -215 -214 -209 -208 -214 -218 -221 -225 -225 -221 -215 -231 -235 -234 -233 -229 -224 -216 -208 -204 -201 -196 -194 -192 -189 -184 -179 -177 -173 -179 -186 -193 -193 -191 -192 -197 -197 -198 -198 -200 -201 -204 -204 -205 -204 -200 -191 -188 -189 -181 -173 -171 -171 -167 -164 -158 -152 -148 -143 -139 -134 -132 -130 -128 -126 -122 -117 -112 -109 -106 -103 -101 -98 -96 -95 -93 -93 -94 -96 -95 -94 -95 -97 -98 -99 -94 -91 -86 -79 -66 -54 -63 -62 -59 -58 -57 -56 -52 -58 -59 -60 -60 -60 -60 -59 -59 -59 -60 -60 -60 -57 -59 -60 -61 -63 -65 -66 -65 -61 -72 -88 -77 -61 -61 -68 -67 -64 -60 -47 -45 -48 -53 -51 -44 -38 -42 -52 -57 -54 -54 -47 -42 -41 -39 -40 -34 -28 -23 -21 -14 -10 -9 -14 -17 -19 -20 -20 -20 -20 -20 -19 -18
215 227 224 241 244 225 200 180 189 182 176 167 164 161 160 159 170 186 187 180 181 198 205 222 228 233 248 259 253 249 258 273 324 318 252 227 229 255 214 164 150 148 146 127 99 81 76 76 80 74 76 71 76 76 71 71 76 77 78 80 79 92 92 99 102 93 82 79 84 85 112 140 125 99 81 74 73 70 68 75 71 67 64 70 70 59 57 61 72 68 58 60 63 58 51 49 42 38 38 28 11 11 8 1 1 -5 -5 -2 -2 -6 -4 -9 -12 -10 -11 -13 -14 -18 -30 -42 -45 -38 -39 -49 -52 -50 -50 -40 -43 -46 -44 -48 -44 -41 -49 -56 -59 -64 -73 -68 -78 -84 -78 -80 -90 -102 -96 -97 -104 -111 -116 -111 -104 -103 -116 -132 -148 -117 -140 -168 -157 -157 -151 -155 -157 -158 -156 -176 -168 -169 -166 -164 -161 -153 -149 -142 -139 -137 -130 -135 -147 -160 -172 -176 -179 -178 -176 -171 -170 -166 -167 -168 -171 -175 -175 -172 -172 -177 -165 -162 -165 -171 -177 -181 -186 -190 -185 -178 -175 -174 -172 -171 -170 -167 -165 -164 -164 -164 -166 -170 -172 -171 -169 -168 -167 -169 -169 -173 -180 -181 -181 -179 -174 -170 -168 -167 -169 -172 -175 -174 -174 -174 -174 -173 -173 -171 -170 -169 -168 -168 -168 -167 -166 -164 -162 -160 -158 -157 -160 -161 -160 -158 -155 -154 -153 -156 -156 -153 -155 -159 -163 -163 -163 -155 -147 -146 -146 -147 -148 -153 -153 -153 -153 -152 -151 -147 -143 -143 -148 -149 -146 -141 -131 -124 -119 -117 -117 -122 -128 -129 -122 -117 -113 -109 -110 -112 -116 -118 -119 -121 -122 -122 -121 -121 -120 -120 -118 -112 -104 -103 -106 -110 -116 -125 -128 -132 -136 -140 -142 -143 -144 -150 -155 -160 -164 -169 -178 -180 -180 -181 -181 -181 -182 -182 -182 -181 -182 -183 -183 -184 -184 -184 -183 -184 -184 -184 -185 -184 -182 -180 -174 -170 -165 -163 -160 -156 -159 -162 -165 -169 -172 -174 -175 -176 -177 -178 -178 -179 -183 -187 -189 -192 -193 -193 -195 -196 -198 -199 -200 -202 -205 -206 -208 -210 -211 -213 -214 -216 -220 -224 -225 -227 -229 -233 -232 -232 -227 -228 -234 -238 -239 -240 -241 -241 -242 -242 -242 -241 -241 -241 -240 -240 -240 -237 -234 -231 -230 -230 -230 -228 -223 -231 -239 -247 -254 -256 -259 -263 -267 -266 -263 -259 -257 -253 -249 -246 -245 -244 -242 -240 -237 -234 -232 -229 -227 -223 -223 -221 -218 -213 -211 -207 -199 -191 -190 -189 -184 -177 -172 -169 -169 -172 -182 -187 -190 -191 -193 -189 -185 -180 -177 -173 -172 -181 -191 -202 -210 -203 -190 -183 -188 -186 -182 -195 -206 -211 -210 -212 -209 -193 -203 -207 -215 -220 -223 -226 -227 -224 -223 -232 -237 -235 -235 -229 -224 -217 -208 -204 -200 -196 -194 -191 -188 -183 -179 -177 -175 -178 -188 -194 -196 -196 -194 -196 -198 -200 -200 -201 -203 -205 -207 -204 -200 -195 -191 -192 -187 -180 -174 -169 -163 -165 -167 -164 -154 -147 -142 -138 -134 -131 -130 -129 -129 -123 -118 -113 -108 -106 -104 -101 -99 -97 -95 -92 -92 -93 -94 -94 -93 -91 -96 -98 -99 -98 -93 -83 -68 -64 -57 -60 -60 -57 -55 -55 -57 -54 -57 -58 -59 -59 -59 -59 -58 -56 -50 -56 -59 -60 -59 -59 -59 -60 -60 -63 -71 -72 -60 -69 -92 -78 -63 -57 -62 -61 -63 -66 -44 -43 -48 -59 -57 -46 -38 -40 -49 -55 -53 -48 -40 -40 -43 -42 -40 -38 -30 -23 -19 -13 -9 -6 -11 -15 -19 -20 -19 -19 -19 -19 -18 -16
206 212 226 220 243 240 218 191 174 171 165 170 179 199 173 169 177 170 168 165 172 169 177 201 208 206 216 230 239 242 238 273 328 322 273 232 193 199 211 184 144 124 129 134 122 101 82 73 78 77 74 75 79 81 74 70 73 74 77 73 70 72 72 93 99 92 81 89 110 113 97 109 114 95 78 73 72 63 65 70 63 58 60 64 68 61 66 68 67 62 56 58 64 61 53 43 42 34 29 13 1 3 2 -4 -7 -12 -15 -16 -17 -16 -15 -13 -14 -13 -13 -15 -23 -30 -35 -44 -46 -37 -40 -43 -48 -53 -55 -55 -49 -51 -49 -58 -46 -40 -45 -54 -56 -67 -63 -58 -75 -91 -96 -92 -98 -99 -104 -105 -109 -113 -117 -119 -117 -112 -116 -130 -150 -127 -132 -158 -160 -172 -177 -177 -164 -165 -166 -166 -159 -165 -165 -165 -157 -145 -131 -129 -134 -138 -140 -146 -161 -165 -172 -176 -182 -181 -179 -175 -171 -170 -169 -169 -174 -181 -180 -173 -169 -170 -156 -159 -163 -174 -181 -184 -191 -199 -188 -178 -175 -176 -174 -173 -172 -168 -165 -165 -164 -163 -166 -169 -174 -171 -169 -169 -169 -174 -173 -180 -188 -185 -182 -175 -171 -167 -164 -164 -167 -172 -178 -174 -175 -175 -176 -176 -177 -172 -170 -170 -169 -168 -168 -168 -169 -164 -162 -159 -156 -155 -162 -165 -163 -159 -155 -153 -151 -157 -158 -149 -152 -156 -161 -161 -160 -151 -142 -148 -150 -150 -144 -154 -152 -153 -155 -153 -151 -146 -141 -145 -150 -151 -147 -140 -130 -123 -116 -117 -119 -126 -131 -131 -125 -120 -115 -107 -112 -113 -115 -115 -118 -121 -123 -125 -123 -125 -125 -126 -125 -122 -115 -111 -111 -112 -114 -122 -128 -134 -139 -142 -144 -146 -148 -154 -162 -166 -171 -177 -186 -185 -183 -183 -183 -184 -185 -185 -184 -184 -183 -183 -181 -181 -183 -183 -183 -184 -185 -185 -184 -181 -177 -172 -166 -163 -159 -158 -157 -157 -162 -165 -169 -173 -175 -175 -176 -177 -179 -180 -181 -183 -186 -189 -191 -194 -194 -192 -196 -198 -199 -200 -201 -204 -206 -207 -209 -210 -210 -212 -214 -216 -220 -224 -225 -228 -227 -232 -232 -234 -234 -221 -229 -237 -237 -238 -240 -240 -240 -241 -239 -239 -239 -239 -237 -237 -238 -235 -230 -227 -228 -230 -229 -228 -226 -229 -236 -242 -249 -250 -253 -258 -263 -264 -263 -258 -256 -253 -250 -247 -246 -243 -241 -240 -237 -235 -232 -227 -221 -227 -225 -222 -220 -218 -219 -213 -206 -198 -189 -189 -182 -175 -168 -166 -167 -169 -181 -186 -189 -190 -190 -187 -184 -181 -177 -172 -176 -185 -195 -202 -203 -195 -185 -175 -181 -180 -163 -191 -202 -202 -210 -216 -216 -212 -213 -211 -215 -220 -222 -225 -227 -227 -228 -232 -235 -233 -232 -226 -222 -214 -207 -204 -201 -198 -195 -191 -188 -184 -182 -181 -179 -183 -192 -196 -199 -198 -196 -197 -199 -200 -201 -201 -202 -204 -204 -198 -191 -187 -183 -182 -180 -176 -172 -169 -166 -163 -159 -156 -151 -145 -141 -136 -133 -130 -128 -126 -124 -121 -118 -114 -110 -105 -102 -100 -100 -99 -95 -92 -91 -92 -94 -95 -94 -94 -95 -97 -97 -99 -92 -85 -75 -67 -60 -61 -60 -53 -51 -51 -54 -54 -56 -57 -58 -58 -59 -60 -58 -58 -58 -59 -60 -60 -60 -60 -60 -60 -61 -63 -67 -68 -62 -68 -83 -74 -61 -55 -56 -57 -59 -59 -45 -39 -42 -48 -45 -43 -48 -50 -49 -49 -46 -43 -38 -35 -44 -42 -37 -28 -20 -18 -16 -11 -8 -9 -13 -15 -19 -20 -20 -19 -19 -18 -16 -14
186 183 189 199 213 214 206 200 187 177 165 197 218 223 217 180 189 215 216 200 184 178 179 184 183 185 193 210 241 275 291 283 303 244 218 193 174 164 185 178 161 137 128 136 134 117 96 76 75 74 75 82 97 106 98 88 69 65 69 68 69 76 76 81 84 82 85 88 121 137 115 91 85 83 76 70 64 65 56 54 52 52 53 54 57 55 63 63 62 62 62 60 56 51 49 41 40 29 19 3 -2 1 -2 -9 -10 -17 -19 -19 -22 -19 -14 -13 -18 -17 -11 -11 -26 -38 -43 -37 -43 -37 -39 -42 -51 -58 -58 -60 -61 -61 -53 -56 -50 -39 -46 -52 -71 -90 -91 -82 -86 -96 -87 -86 -101 -102 -106 -108 -112 -114 -121 -127 -126 -120 -123 -135 -145 -124 -128 -145 -163 -181 -178 -177 -171 -166 -172 -158 -153 -159 -158 -161 -153 -145 -136 -133 -138 -144 -149 -159 -169 -170 -171 -175 -181 -182 -180 -177 -174 -171 -171 -171 -171 -174 -172 -167 -162 -158 -155 -159 -167 -174 -178 -179 -183 -187 -182 -172 -173 -174 -174 -172 -169 -167 -164 -164 -167 -167 -164 -164 -166 -165 -169 -170 -179 -189 -197 -191 -186 -180 -171 -160 -163 -163 -161 -163 -169 -170 -170 -167 -176 -177 -177 -176 -174 -172 -170 -169 -168 -168 -167 -169 -174 -163 -159 -157 -156 -157 -163 -170 -163 -159 -156 -155 -155 -158 -156 -152 -151 -152 -157 -158 -156 -150 -145 -148 -152 -153 -151 -155 -156 -159 -160 -156 -152 -148 -146 -148 -149 -150 -147 -141 -132 -128 -124 -125 -128 -130 -131 -128 -123 -117 -115 -113 -117 -119 -116 -115 -117 -120 -122 -123 -120 -124 -128 -133 -130 -127 -122 -120 -117 -117 -118 -125 -130 -135 -141 -146 -149 -152 -155 -161 -167 -171 -176 -180 -183 -184 -183 -183 -184 -188 -188 -187 -186 -185 -183 -180 -179 -179 -180 -182 -183 -184 -185 -184 -181 -177 -172 -166 -161 -159 -156 -156 -156 -159 -164 -167 -170 -173 -174 -176 -176 -178 -180 -181 -183 -185 -187 -189 -192 -194 -195 -195 -197 -198 -199 -200 -201 -203 -206 -207 -209 -209 -210 -212 -214 -217 -220 -223 -225 -228 -229 -232 -232 -233 -233 -230 -227 -225 -233 -236 -237 -237 -238 -238 -238 -238 -237 -237 -236 -235 -235 -233 -229 -227 -225 -225 -226 -228 -229 -231 -236 -242 -246 -250 -252 -255 -259 -261 -260 -256 -254 -251 -249 -247 -246 -243 -241 -238 -238 -236 -234 -231 -230 -230 -226 -223 -222 -221 -221 -219 -212 -206 -198 -191 -187 -169 -169 -169 -171 -177 -186 -188 -186 -184 -182 -184 -186 -189 -187 -184 -185 -190 -196 -202 -202 -192 -183 -174 -180 -183 -178 -192 -201 -206 -213 -220 -219 -217 -216 -215 -217 -220 -223 -226 -227 -229 -228 -230 -231 -230 -228 -220 -210 -210 -206 -204 -201 -198 -193 -190 -189 -185 -185 -185 -184 -187 -192 -195 -199 -199 -198 -198 -199 -199 -200 -200 -201 -202 -201 -194 -187 -182 -183 -182 -178 -174 -171 -167 -164 -160 -152 -152 -149 -144 -139 -135 -132 -129 -127 -124 -122 -120 -117 -114 -109 -103 -100 -98 -99 -98 -94 -91 -88 -92 -96 -97 -96 -95 -96 -97 -91 -88 -80 -75 -71 -64 -61 -60 -56 -53 -53 -48 -54 -54 -53 -55 -55 -50 -59 -60 -54 -47 -59 -60 -61 -61 -61 -61 -61 -61 -61 -62 -64 -68 -70 -72 -75 -69 -61 -56 -55 -54 -54 -54 -49 -46 -47 -43 -40 -37 -60 -56 -51 -49 -44 -42 -37 -33 -41 -43 -37 -28 -18 -17 -17 -16 -15 -15 -17 -18 -22 -22 -21 -22 -22 -20 -18 -17
202 180 166 180 192 194 180 169 158 154 177 211 244 253 228 200 186 199 223 232 219 202 199 211 226 243 240 214 234 272 297 232 217 210 192 172 161 150 165 168 163 152 132 120 127 132 112 79 74 74 73 79 94 107 108 96 78 61 61 62 65 71 71 83 94 103 105 109 92 84 84 77 74 73 70 61 61 60 57 49 46 46 46 55 61 59 57 56 65 68 57 53 52 53 51 42 40 29 7 -2 1 -4 -10 -11 -18 -21 -20 -22 -22 -22 -11 -16 -20 -25 -15 -16 -30 -39 -37 -48 -47 -41 -41 -41 -48 -55 -55 -51 -68 -69 -50 -63 -56 -43 -44 -62 -95 -91 -78 -83 -91 -93 -85 -80 -98 -101 -107 -111 -112 -113 -121 -125 -125 -129 -138 -144 -155 -138 -130 -147 -164 -181 -180 -178 -176 -172 -168 -158 -143 -147 -146 -140 -147 -145 -142 -145 -150 -150 -155 -165 -176 -173 -171 -177 -183 -185 -181 -179 -177 -174 -174 -169 -163 -165 -158 -151 -144 -141 -149 -160 -168 -172 -169 -171 -172 -174 -173 -159 -165 -167 -166 -165 -165 -165 -164 -164 -167 -172 -157 -140 -156 -167 -174 -182 -187 -187 -188 -185 -180 -175 -170 -163 -163 -162 -158 -150 -161 -166 -169 -172 -178 -181 -179 -176 -173 -171 -170 -168 -167 -165 -165 -166 -169 -164 -158 -156 -155 -157 -161 -164 -159 -158 -156 -157 -158 -160 -158 -154 -150 -144 -149 -153 -152 -150 -147 -149 -155 -157 -157 -158 -161 -164 -168 -162 -155 -151 -149 -147 -147 -149 -149 -145 -138 -135 -133 -134 -136 -135 -133 -128 -119 -116 -115 -117 -121 -122 -119 -118 -118 -117 -118 -117 -113 -120 -127 -131 -129 -127 -126 -127 -128 -127 -127 -131 -135 -139 -146 -152 -157 -161 -163 -167 -173 -175 -178 -180 -180 -181 -181 -183 -189 -199 -193 -189 -187 -185 -181 -175 -176 -177 -179 -180 -182 -183 -183 -183 -180 -175 -169 -163 -159 -157 -154 -153 -155 -157 -164 -167 -170 -172 -174 -176 -177 -179 -181 -182 -184 -186 -188 -190 -193 -195 -195 -195 -196 -197 -198 -199 -201 -202 -204 -206 -208 -208 -208 -210 -213 -216 -220 -223 -225 -227 -229 -230 -230 -232 -232 -231 -228 -223 -216 -226 -228 -232 -235 -236 -236 -235 -235 -235 -233 -232 -231 -229 -227 -225 -222 -220 -224 -227 -230 -233 -237 -241 -246 -249 -250 -253 -257 -258 -257 -255 -251 -249 -248 -246 -244 -241 -240 -238 -237 -236 -234 -232 -231 -231 -226 -224 -224 -226 -225 -223 -216 -211 -200 -193 -188 -180 -176 -176 -177 -181 -190 -190 -187 -181 -173 -181 -187 -191 -196 -195 -194 -196 -200 -204 -203 -195 -188 -182 -187 -188 -185 -194 -202 -208 -213 -219 -219 -219 -218 -217 -219 -221 -223 -226 -228 -232 -229 -228 -228 -227 -224 -219 -214 -212 -207 -204 -199 -188 -163 -180 -191 -190 -193 -180 -183 -192 -194 -194 -196 -196 -197 -198 -198 -198 -199 -200 -201 -203 -198 -192 -185 -183 -184 -182 -178 -173 -171 -169 -163 -158 -152 -149 -145 -141 -138 -134 -131 -127 -126 -123 -121 -118 -114 -111 -106 -101 -98 -96 -96 -95 -93 -90 -91 -94 -101 -100 -98 -96 -94 -89 -78 -73 -66 -63 -55 -55 -58 -56 -51 -52 -53 -53 -55 -53 -53 -54 -54 -55 -58 -58 -56 -54 -59 -60 -61 -61 -62 -62 -62 -62 -62 -62 -63 -68 -70 -75 -72 -67 -61 -56 -57 -52 -51 -51 -49 -47 -45 -40 -43 -43 -56 -59 -58 -55 -49 -44 -39 -36 -43 -42 -39 -31 -24 -20 -19 -24 -21 -21 -21 -21 -25 -25 -26 -27 -26 -24 -23 -23
196 193 165 169 181 178 171 154 157 167 180 207 255 285 250 219 199 177 207 251 253 240 227 216 224 250 269 242 225 245 234 205 175 182 193 179 156 137 147 161 154 145 137 120 105 115 109 86 73 69 70 74 91 106 102 98 88 77 62 64 66 71 71 87 94 114 113 98 85 71 71 69 68 67 64 58 59 56 49 42 48 55 56 61 73 73 61 61 64 64 58 52 47 45 49 39 35 24 4 2 -3 -7 -15 -15 -19 -25 -27 -25 -30 -23 -17 -13 -24 -27 -26 -34 -36 -45 -50 -47 -47 -51 -49 -42 -54 -59 -60 -52 -61 -63 -62 -54 -60 -40 -62 -81 -93 -90 -86 -85 -88 -111 -87 -66 -94 -102 -109 -114 -115 -119 -123 -127 -133 -134 -139 -143 -149 -149 -150 -154 -158 -165 -174 -171 -172 -175 -170 -151 -137 -143 -145 -143 -150 -148 -146 -152 -149 -152 -155 -162 -169 -171 -172 -180 -186 -182 -176 -176 -170 -168 -167 -161 -144 -145 -145 -137 -127 -132 -146 -160 -168 -165 -162 -163 -163 -169 -175 -165 -164 -163 -161 -158 -161 -165 -163 -161 -159 -160 -158 -156 -167 -174 -177 -184 -185 -178 -176 -174 -171 -169 -170 -165 -165 -164 -164 -157 -162 -165 -168 -172 -178 -184 -179 -174 -171 -169 -169 -167 -165 -164 -163 -164 -165 -162 -157 -157 -154 -159 -161 -160 -154 -158 -158 -159 -161 -162 -160 -157 -154 -149 -149 -153 -150 -151 -150 -154 -158 -160 -160 -161 -162 -165 -167 -165 -158 -154 -152 -148 -144 -150 -153 -149 -144 -141 -141 -142 -142 -140 -136 -129 -121 -118 -119 -122 -125 -126 -122 -120 -119 -116 -116 -116 -116 -120 -128 -131 -130 -130 -131 -134 -136 -136 -138 -141 -142 -147 -153 -158 -164 -166 -167 -172 -175 -176 -178 -178 -177 -178 -179 -180 -185 -191 -191 -189 -187 -186 -182 -179 -177 -177 -178 -178 -180 -181 -182 -181 -178 -173 -168 -163 -158 -157 -152 -150 -154 -158 -163 -166 -170 -173 -174 -176 -177 -179 -182 -183 -185 -187 -189 -191 -194 -196 -195 -195 -196 -197 -198 -199 -201 -201 -202 -205 -207 -208 -207 -210 -213 -216 -219 -223 -225 -227 -228 -230 -230 -231 -231 -232 -231 -232 -232 -230 -223 -227 -234 -234 -233 -233 -232 -232 -230 -229 -227 -226 -225 -224 -220 -213 -222 -229 -232 -236 -239 -242 -245 -248 -249 -251 -253 -254 -255 -251 -249 -247 -247 -245 -243 -241 -240 -238 -236 -235 -233 -230 -229 -228 -225 -223 -222 -221 -220 -218 -213 -207 -198 -193 -191 -188 -184 -182 -182 -187 -193 -194 -192 -189 -185 -186 -188 -192 -200 -202 -200 -201 -203 -206 -204 -199 -193 -190 -195 -194 -186 -200 -206 -210 -213 -217 -218 -221 -219 -219 -221 -222 -223 -224 -225 -228 -226 -226 -226 -225 -223 -220 -217 -214 -210 -206 -202 -202 -195 -188 -186 -181 -174 -160 -176 -198 -194 -191 -193 -193 -196 -197 -196 -196 -198 -199 -200 -200 -194 -191 -186 -185 -185 -184 -177 -171 -167 -163 -159 -155 -151 -147 -143 -140 -136 -133 -130 -127 -125 -122 -120 -115 -110 -107 -104 -100 -95 -94 -95 -93 -93 -92 -96 -99 -103 -101 -97 -94 -88 -82 -63 -64 -62 -62 -59 -58 -59 -57 -56 -56 -58 -57 -58 -53 -55 -55 -54 -59 -59 -59 -57 -60 -61 -61 -61 -61 -63 -63 -62 -63 -63 -64 -70 -69 -64 -79 -71 -67 -67 -60 -60 -59 -59 -55 -50 -49 -49 -48 -54 -47 -54 -56 -63 -62 -53 -47 -41 -39 -42 -41 -39 -36 -29 -24 -26 -33 -28 -26 -26 -25 -27 -28 -29 -32 -28 -28 -28 -30
162 166 166 164 172 162 161 160 153 179 192 221 267 295 263 248 225 197 215 230 259 278 262 244 251 257 280 298 237 208 193 197 165 162 176 173 153 150 136 137 133 128 120 110 100 110 106 88 72 67 68 81 98 99 99 96 95 76 60 61 64 72 72 99 109 116 113 89 70 63 66 61 64 63 56 52 56 54 48 41 50 51 59 83 89 83 73 65 53 55 55 58 51 48 46 38 31 14 4 1 -3 -10 -19 -22 -24 -28 -30 -27 -30 -26 -25 -19 -28 -30 -32 -39 -36 -45 -44 -45 -49 -55 -52 -48 -46 -56 -66 -64 -57 -59 -60 -58 -67 -74 -80 -83 -82 -78 -79 -86 -91 -98 -99 -104 -106 -106 -113 -116 -118 -119 -127 -131 -132 -137 -147 -149 -155 -156 -150 -148 -154 -160 -166 -169 -165 -159 -150 -138 -135 -140 -141 -142 -149 -149 -151 -151 -150 -155 -156 -162 -169 -172 -176 -184 -188 -181 -167 -170 -160 -162 -157 -142 -114 -131 -133 -130 -129 -129 -141 -156 -160 -159 -157 -159 -161 -164 -166 -163 -161 -159 -156 -154 -158 -169 -160 -157 -153 -152 -164 -170 -182 -172 -172 -178 -175 -168 -173 -170 -165 -165 -165 -159 -160 -162 -163 -157 -158 -161 -164 -165 -174 -173 -175 -172 -169 -167 -166 -164 -163 -163 -163 -161 -163 -162 -157 -158 -161 -160 -160 -162 -162 -161 -161 -163 -164 -162 -160 -158 -156 -152 -148 -152 -153 -155 -156 -158 -159 -160 -162 -163 -163 -164 -165 -164 -161 -159 -156 -154 -150 -151 -150 -148 -146 -145 -146 -148 -149 -145 -140 -135 -128 -125 -125 -125 -126 -125 -123 -122 -122 -122 -121 -122 -123 -126 -130 -134 -136 -138 -137 -138 -140 -145 -148 -151 -154 -155 -157 -161 -165 -168 -171 -174 -175 -175 -177 -178 -176 -175 -177 -177 -184 -188 -189 -188 -188 -188 -184 -182 -178 -178 -178 -177 -178 -180 -181 -181 -178 -173 -168 -165 -162 -159 -155 -153 -154 -157 -161 -166 -170 -173 -175 -176 -178 -179 -182 -185 -186 -188 -190 -191 -193 -195 -194 -195 -196 -197 -198 -199 -200 -201 -202 -205 -207 -208 -208 -210 -213 -215 -218 -222 -223 -226 -228 -229 -229 -230 -230 -230 -231 -231 -231 -230 -229 -224 -230 -231 -230 -229 -229 -229 -228 -227 -224 -225 -225 -225 -224 -224 -227 -232 -236 -239 -241 -243 -245 -248 -248 -249 -249 -249 -249 -247 -246 -245 -243 -243 -242 -239 -238 -238 -235 -233 -229 -223 -215 -219 -223 -223 -221 -219 -218 -214 -209 -204 -198 -193 -193 -191 -188 -186 -188 -191 -195 -197 -198 -197 -192 -189 -188 -187 -202 -206 -205 -204 -206 -207 -205 -201 -197 -196 -197 -198 -197 -205 -210 -212 -214 -216 -218 -220 -220 -221 -223 -224 -224 -223 -224 -228 -226 -226 -225 -224 -223 -221 -218 -217 -212 -205 -200 -197 -192 -188 -183 -177 -171 -169 -174 -180 -185 -187 -191 -195 -195 -197 -195 -195 -196 -199 -199 -196 -193 -190 -187 -185 -184 -181 -176 -169 -165 -161 -158 -154 -151 -147 -144 -139 -135 -133 -129 -125 -123 -122 -116 -111 -106 -101 -101 -99 -98 -96 -98 -97 -96 -96 -101 -106 -107 -100 -94 -88 -79 -73 -64 -62 -61 -64 -60 -59 -60 -60 -58 -57 -58 -59 -59 -57 -58 -59 -61 -59 -58 -58 -56 -59 -61 -62 -59 -61 -65 -62 -62 -66 -65 -63 -64 -64 -63 -71 -69 -66 -78 -72 -65 -62 -63 -59 -52 -52 -53 -53 -58 -58 -54 -48 -57 -56 -52 -47 -40 -38 -43 -41 -40 -39 -36 -24 -31 -45 -31 -29 -31 -27 -28 -29 -29 -28 -25 -28 -28 -32
153 141 144 141 155 162 150 161 169 224 261 267 338 304 250 231 215 211 218 235 266 305 300 290 262 279 343 350 217 192 183 180 155 134 140 156 141 155 150 133 134 136 138 129 105 82 85 97 86 67 69 83 108 111 104 93 89 83 63 64 61 66 66 102 120 109 94 81 64 66 64 62 63 59 55 50 48 49 46 43 49 52 67 92 82 78 76 77 55 50 50 60 53 50 44 37 25 11 3 2 -7 -11 -20 -27 -24 -28 -33 -31 -29 -27 -21 -15 -27 -45 -26 -24 -23 -34 -42 -44 -44 -49 -54 -59 -51 -61 -64 -68 -66 -65 -62 -59 -74 -84 -79 -73 -74 -84 -81 -85 -94 -102 -104 -106 -106 -102 -111 -116 -113 -117 -119 -130 -132 -137 -148 -150 -148 -156 -145 -146 -151 -153 -158 -162 -168 -152 -138 -128 -131 -136 -138 -142 -148 -147 -152 -152 -156 -160 -156 -161 -168 -173 -179 -189 -190 -178 -154 -162 -151 -158 -140 -122 -114 -123 -124 -124 -125 -129 -137 -146 -152 -153 -155 -156 -158 -160 -160 -160 -159 -157 -155 -154 -155 -159 -157 -157 -162 -169 -183 -203 -182 -152 -160 -166 -170 -174 -186 -170 -158 -158 -156 -151 -156 -158 -157 -155 -155 -158 -161 -164 -172 -176 -173 -170 -167 -165 -162 -159 -161 -162 -162 -163 -163 -163 -162 -161 -159 -154 -159 -162 -165 -166 -165 -165 -164 -162 -160 -158 -157 -155 -153 -155 -158 -161 -160 -160 -162 -163 -164 -166 -164 -163 -166 -168 -164 -161 -159 -157 -155 -152 -149 -147 -146 -146 -148 -151 -152 -149 -145 -139 -133 -128 -128 -128 -128 -127 -127 -128 -128 -129 -128 -129 -131 -133 -136 -140 -142 -144 -144 -146 -150 -156 -159 -160 -160 -158 -156 -161 -166 -168 -171 -172 -173 -173 -176 -178 -177 -176 -178 -181 -185 -188 -190 -190 -190 -187 -186 -183 -180 -178 -176 -176 -177 -178 -179 -178 -175 -171 -168 -165 -163 -161 -159 -158 -158 -160 -162 -166 -170 -173 -176 -177 -179 -181 -183 -186 -187 -189 -190 -192 -193 -194 -194 -195 -196 -198 -199 -200 -201 -202 -203 -205 -207 -208 -209 -210 -212 -214 -217 -220 -222 -224 -226 -227 -227 -227 -228 -228 -229 -228 -228 -227 -225 -222 -221 -217 -223 -225 -226 -226 -226 -226 -225 -226 -226 -227 -227 -229 -231 -235 -238 -241 -242 -243 -243 -244 -245 -245 -245 -244 -243 -243 -243 -243 -242 -241 -239 -236 -234 -235 -234 -231 -228 -223 -219 -220 -223 -225 -222 -220 -218 -212 -207 -205 -201 -198 -199 -194 -191 -189 -191 -193 -196 -197 -198 -198 -194 -192 -191 -191 -198 -202 -203 -204 -205 -205 -203 -201 -200 -199 -200 -202 -203 -208 -211 -213 -214 -216 -217 -216 -219 -221 -223 -224 -223 -222 -224 -226 -226 -227 -225 -224 -225 -221 -217 -215 -206 -190 -194 -193 -186 -185 -182 -178 -174 -172 -174 -178 -182 -185 -187 -189 -191 -192 -192 -193 -194 -195 -194 -193 -191 -188 -186 -184 -182 -178 -173 -168 -165 -160 -156 -153 -151 -152 -144 -138 -132 -130 -126 -122 -120 -117 -111 -107 -102 -97 -99 -100 -99 -101 -104 -103 -101 -101 -105 -107 -109 -97 -87 -77 -75 -71 -67 -64 -63 -64 -65 -62 -62 -65 -61 -59 -62 -62 -63 -65 -61 -61 -62 -59 -60 -62 -68 -64 -63 -63 -54 -62 -72 -67 -68 -75 -69 -65 -64 -63 -71 -93 -93 -69 -67 -69 -68 -68 -70 -58 -56 -56 -57 -53 -54 -53 -55 -52 -53 -52 -53 -43 -40 -39 -40 -38 -41 -41 -37 -29 -27 -34 -24 -28 -30 -29 -27 -28 -28 -28 -25 -25 -23 -28
179 152 122 128 137 142 178 220 226 269 297 335 304 274 263 267 242 211 212 224 233 262 309 326 317 334 373 321 227 182 181 179 161 130 110 131 144 133 125 123 127 135 146 141 133 86 93 102 93 63 62 69 96 107 119 99 91 79 69 66 65 64 64 81 92 87 74 56 55 61 65 59 61 63 51 52 46 55 44 41 44 48 75 69 75 70 75 63 56 57 45 55 56 56 47 33 18 6 2 -5 -10 -11 -22 -25 -33 -33 -33 -36 -31 -26 -24 -21 -25 -34 -26 -21 -24 -27 -45 -46 -50 -48 -59 -57 -63 -56 -58 -71 -65 -73 -78 -68 -72 -81 -85 -84 -86 -87 -81 -90 -95 -93 -101 -105 -108 -109 -114 -120 -122 -123 -124 -131 -131 -139 -148 -154 -157 -156 -146 -143 -146 -148 -147 -148 -149 -139 -124 -124 -127 -130 -133 -138 -142 -148 -157 -158 -160 -157 -150 -159 -169 -174 -179 -190 -199 -192 -181 -179 -151 -144 -126 -122 -112 -107 -113 -117 -120 -127 -133 -139 -145 -149 -152 -153 -155 -156 -156 -158 -159 -158 -155 -153 -151 -152 -152 -156 -170 -180 -183 -188 -180 -161 -159 -160 -166 -169 -171 -160 -143 -153 -151 -141 -154 -156 -153 -152 -151 -154 -158 -162 -173 -182 -171 -168 -165 -163 -161 -161 -162 -161 -163 -165 -165 -166 -165 -165 -162 -161 -162 -164 -168 -170 -169 -167 -164 -162 -159 -158 -158 -159 -156 -157 -161 -168 -162 -162 -165 -165 -166 -169 -163 -159 -166 -175 -166 -162 -161 -159 -155 -151 -148 -145 -145 -146 -149 -152 -156 -152 -149 -145 -139 -135 -133 -132 -130 -130 -131 -135 -134 -136 -135 -136 -137 -141 -142 -146 -149 -150 -151 -153 -160 -168 -170 -167 -166 -161 -160 -164 -167 -168 -170 -171 -172 -173 -176 -179 -177 -177 -180 -184 -187 -190 -192 -194 -194 -191 -189 -185 -181 -178 -174 -176 -178 -178 -177 -175 -173 -170 -166 -164 -164 -164 -163 -162 -162 -163 -164 -168 -172 -175 -177 -178 -180 -182 -184 -188 -188 -190 -191 -192 -192 -193 -194 -194 -197 -198 -199 -200 -201 -202 -204 -206 -209 -209 -209 -210 -211 -214 -216 -218 -220 -223 -224 -225 -225 -225 -225 -226 -226 -226 -225 -223 -221 -218 -219 -221 -222 -222 -223 -223 -224 -225 -226 -227 -228 -228 -230 -232 -234 -237 -241 -243 -243 -242 -242 -241 -241 -241 -241 -240 -237 -238 -241 -241 -241 -240 -238 -233 -228 -235 -233 -231 -227 -224 -222 -222 -223 -223 -221 -217 -213 -209 -203 -204 -202 -199 -196 -195 -194 -193 -194 -195 -197 -198 -199 -198 -195 -193 -192 -194 -196 -198 -201 -202 -203 -203 -202 -201 -201 -202 -202 -204 -206 -210 -212 -213 -214 -216 -218 -220 -221 -222 -224 -224 -221 -220 -223 -225 -227 -228 -224 -222 -227 -221 -216 -213 -210 -205 -200 -196 -191 -187 -183 -179 -176 -174 -175 -178 -180 -182 -183 -182 -185 -188 -189 -190 -191 -193 -191 -190 -188 -186 -184 -182 -180 -177 -171 -165 -162 -157 -153 -150 -147 -143 -139 -136 -133 -130 -124 -119 -116 -112 -107 -105 -100 -97 -100 -101 -103 -105 -108 -111 -109 -107 -108 -101 -94 -88 -84 -81 -77 -73 -68 -64 -64 -65 -62 -62 -62 -62 -61 -56 -58 -62 -64 -63 -60 -62 -64 -63 -62 -60 -63 -62 -63 -63 -62 -62 -66 -62 -63 -64 -65 -65 -66 -65 -65 -72 -69 -73 -67 -60 -67 -68 -65 -62 -60 -59 -55 -50 -51 -54 -55 -55 -51 -47 -53 -43 -43 -40 -42 -44 -47 -46 -39 -34 -34 -38 -32 -33 -33 -32 -30 -30 -29 -31 -24 -25 -25 -26
171 154 124 117 137 194 205 235 278 323 303 307 253 240 280 277 268 254 223 207 215 243 250 257 283 271 238 220 197 182 171 176 184 149 106 110 117 118 113 106 122 127 136 115 103 87 74 74 68 55 52 61 70 78 85 87 77 72 77 71 73 60 60 60 70 81 62 49 57 59 58 62 53 53 53 47 51 54 58 42 44 42 46 73 69 66 64 52 52 66 46 44 53 46 44 30 12 2 -4 -13 -18 -17 -24 -31 -34 -37 -38 -39 -36 -36 -30 -25 -27 -32 -32 -28 -22 -26 -42 -46 -47 -42 -41 -41 -61 -62 -67 -66 -52 -63 -75 -72 -76 -80 -87 -89 -88 -88 -86 -81 -87 -95 -102 -102 -107 -114 -119 -124 -125 -125 -129 -132 -136 -143 -150 -155 -159 -151 -143 -146 -142 -142 -135 -139 -140 -128 -114 -116 -122 -126 -128 -132 -137 -145 -155 -160 -160 -160 -161 -165 -171 -176 -182 -187 -190 -191 -187 -177 -162 -152 -141 -123 -111 -103 -104 -111 -118 -126 -128 -132 -137 -145 -151 -149 -150 -154 -155 -156 -161 -155 -151 -149 -145 -149 -152 -162 -173 -180 -177 -177 -175 -162 -161 -164 -175 -172 -167 -159 -149 -151 -149 -145 -154 -157 -154 -150 -147 -152 -157 -159 -168 -176 -169 -169 -165 -165 -165 -166 -167 -168 -167 -165 -164 -166 -168 -167 -165 -163 -168 -176 -173 -172 -172 -169 -165 -163 -162 -158 -161 -162 -159 -160 -163 -168 -161 -161 -164 -166 -162 -162 -155 -152 -160 -166 -163 -162 -162 -160 -154 -148 -143 -139 -141 -144 -146 -148 -152 -153 -151 -151 -147 -145 -141 -138 -135 -135 -137 -140 -140 -140 -138 -140 -141 -143 -145 -148 -150 -154 -158 -164 -170 -174 -175 -170 -166 -161 -161 -164 -167 -168 -170 -169 -170 -173 -176 -178 -178 -179 -181 -184 -186 -190 -194 -199 -196 -194 -191 -186 -182 -179 -179 -178 -180 -177 -175 -171 -169 -168 -166 -163 -163 -165 -166 -166 -167 -168 -170 -172 -175 -178 -179 -180 -182 -184 -186 -188 -189 -190 -191 -192 -193 -194 -195 -196 -198 -198 -200 -201 -202 -204 -206 -207 -209 -209 -210 -210 -211 -213 -215 -217 -219 -221 -223 -224 -223 -223 -221 -222 -224 -224 -223 -220 -215 -211 -208 -209 -216 -217 -219 -219 -223 -224 -226 -227 -229 -230 -232 -233 -235 -238 -242 -244 -243 -242 -240 -239 -238 -238 -238 -237 -236 -236 -237 -238 -238 -236 -235 -233 -233 -234 -232 -229 -227 -226 -226 -225 -226 -225 -222 -219 -210 -207 -204 -204 -203 -201 -194 -195 -196 -195 -195 -196 -198 -198 -198 -197 -196 -195 -194 -194 -193 -194 -198 -200 -202 -202 -200 -200 -200 -202 -203 -206 -208 -210 -211 -212 -213 -217 -220 -220 -221 -222 -223 -223 -222 -222 -223 -225 -227 -228 -224 -221 -219 -217 -214 -212 -209 -206 -202 -198 -189 -189 -185 -181 -178 -176 -177 -178 -179 -181 -180 -176 -182 -185 -187 -189 -190 -191 -191 -190 -187 -185 -183 -180 -178 -175 -169 -163 -159 -154 -151 -147 -144 -140 -137 -135 -132 -131 -121 -115 -112 -109 -107 -107 -101 -98 -102 -103 -106 -108 -114 -122 -117 -113 -98 -91 -86 -84 -83 -82 -79 -75 -70 -66 -65 -66 -63 -65 -64 -67 -68 -66 -66 -67 -69 -68 -63 -63 -67 -69 -64 -61 -62 -63 -63 -62 -61 -62 -63 -63 -63 -63 -65 -66 -70 -67 -66 -74 -68 -80 -69 -68 -67 -63 -57 -65 -64 -63 -57 -49 -50 -55 -57 -56 -51 -48 -53 -48 -53 -51 -48 -49 -56 -53 -40 -37 -38 -42 -38 -39 -42 -39 -33 -32 -33 -33 -28 -29 -28 -27
135 134 115 130 166 215 227 240 260 268 241 236 237 259 278 242 214 222 214 212 199 204 192 186 180 180 196 200 192 177 164 153 147 153 116 98 93 93 95 95 104 110 94 92 89 78 67 65 64 56 50 53 71 78 69 75 65 65 69 70 64 68 68 76 63 60 45 43 52 56 52 54 46 45 35 41 47 47 54 56 43 37 52 69 67 63 65 55 52 46 47 45 38 37 40 30 10 -2 -8 -16 -20 -19 -25 -29 -27 -37 -37 -36 -31 -29 -30 -28 -28 -22 -32 -25 -17 -38 -37 -55 -44 -41 -26 -35 -40 -61 -72 -74 -71 -62 -70 -74 -80 -74 -81 -85 -86 -89 -83 -77 -80 -106 -104 -99 -115 -120 -123 -123 -124 -126 -127 -134 -139 -144 -150 -145 -155 -153 -149 -146 -142 -139 -136 -135 -133 -123 -108 -110 -117 -120 -122 -125 -128 -139 -147 -153 -154 -158 -162 -168 -173 -176 -181 -185 -189 -188 -184 -178 -171 -160 -153 -134 -113 -97 -96 -105 -113 -118 -121 -129 -136 -143 -145 -140 -133 -143 -147 -147 -146 -143 -143 -143 -142 -152 -159 -164 -162 -155 -163 -166 -164 -160 -163 -170 -180 -168 -160 -154 -148 -148 -146 -146 -152 -160 -155 -149 -139 -150 -157 -157 -166 -172 -172 -174 -170 -169 -168 -168 -168 -168 -166 -161 -157 -162 -166 -169 -172 -169 -171 -174 -174 -173 -173 -171 -168 -166 -165 -164 -164 -165 -164 -166 -171 -177 -167 -161 -158 -157 -151 -149 -149 -152 -158 -162 -162 -162 -164 -161 -157 -150 -145 -142 -142 -146 -149 -152 -156 -158 -153 -151 -150 -149 -147 -145 -141 -141 -143 -145 -145 -145 -145 -143 -142 -142 -146 -152 -159 -168 -169 -168 -169 -172 -173 -170 -165 -162 -162 -164 -167 -170 -171 -170 -171 -173 -176 -177 -178 -179 -181 -183 -186 -190 -195 -198 -195 -192 -189 -186 -184 -182 -182 -181 -180 -177 -174 -171 -169 -169 -168 -166 -166 -167 -168 -169 -170 -171 -173 -175 -178 -180 -182 -183 -185 -186 -187 -188 -190 -191 -192 -193 -194 -194 -196 -197 -198 -199 -201 -202 -203 -205 -207 -208 -209 -210 -210 -210 -211 -212 -213 -214 -217 -219 -221 -222 -221 -221 -220 -220 -221 -221 -219 -216 -211 -206 -198 -188 -204 -211 -213 -210 -218 -222 -225 -227 -229 -231 -233 -234 -236 -238 -241 -242 -241 -240 -238 -237 -236 -236 -236 -235 -234 -234 -235 -235 -235 -233 -231 -231 -230 -230 -229 -227 -226 -225 -225 -225 -226 -225 -223 -223 -212 -206 -203 -202 -200 -195 -185 -192 -196 -196 -196 -197 -197 -197 -197 -197 -196 -195 -194 -192 -189 -186 -194 -198 -200 -200 -198 -198 -199 -201 -203 -208 -209 -210 -211 -212 -215 -220 -221 -222 -222 -222 -222 -222 -222 -222 -222 -223 -225 -225 -222 -219 -217 -215 -213 -211 -208 -205 -202 -199 -194 -191 -187 -183 -180 -178 -178 -179 -180 -181 -181 -180 -182 -185 -186 -188 -189 -191 -192 -190 -186 -183 -181 -178 -176 -172 -167 -161 -157 -152 -148 -145 -142 -138 -135 -134 -133 -135 -122 -113 -107 -106 -107 -107 -105 -104 -105 -103 -108 -111 -118 -122 -118 -111 -95 -86 -84 -82 -82 -82 -81 -77 -72 -71 -70 -69 -67 -67 -69 -73 -77 -74 -73 -72 -70 -63 -48 -60 -68 -70 -66 -64 -63 -64 -64 -61 -52 -58 -61 -62 -63 -62 -66 -70 -70 -69 -74 -88 -75 -76 -70 -69 -64 -62 -58 -53 -68 -70 -61 -51 -56 -60 -61 -58 -50 -51 -55 -45 -51 -50 -51 -54 -55 -50 -40 -37 -40 -45 -41 -42 -43 -43 -36 -34 -36 -34 -33 -35 -31 -32
157 121 114 142 177 205 203 232 237 236 238 273 257 253 269 278 214 204 210 217 210 211 181 162 157 156 173 196 176 164 147 135 124 106 100 99 90 93 97 112 84 76 79 82 77 79 79 62 60 66 62 47 56 68 65 77 64 61 68 64 65 69 69 65 58 44 45 41 57 53 47 44 39 36 36 40 37 38 40 44 40 43 51 62 65 68 62 60 55 52 49 55 55 50 51 36 7 -2 -10 -17 -21 -24 -26 -33 -35 -37 -40 -41 -40 -35 -35 -32 -29 -24 -29 -37 -30 -36 -40 -49 -60 -61 -49 -52 -55 -72 -82 -84 -80 -76 -75 -79 -76 -83 -82 -85 -87 -99 -98 -92 -95 -110 -109 -120 -121 -123 -122 -119 -125 -131 -134 -140 -141 -143 -148 -153 -162 -158 -159 -147 -143 -140 -138 -137 -134 -128 -116 -105 -105 -111 -116 -120 -126 -136 -143 -149 -152 -156 -160 -166 -173 -175 -178 -182 -184 -184 -181 -176 -170 -161 -155 -149 -135 -112 -91 -104 -111 -111 -114 -126 -137 -143 -143 -138 -136 -140 -140 -136 -131 -129 -134 -138 -143 -158 -171 -172 -161 -159 -159 -159 -153 -155 -160 -167 -165 -154 -151 -147 -144 -143 -143 -143 -147 -156 -157 -157 -157 -161 -166 -167 -171 -173 -174 -172 -170 -170 -171 -171 -169 -168 -163 -155 -143 -155 -163 -166 -169 -169 -171 -172 -173 -174 -174 -173 -171 -169 -169 -168 -168 -167 -167 -170 -174 -174 -167 -158 -151 -148 -135 -134 -143 -153 -158 -161 -161 -163 -168 -163 -162 -154 -149 -145 -143 -148 -153 -156 -159 -165 -153 -150 -151 -152 -152 -151 -146 -147 -150 -151 -152 -151 -152 -147 -143 -139 -147 -155 -166 -184 -179 -169 -167 -170 -172 -168 -164 -160 -161 -163 -166 -169 -167 -167 -171 -173 -176 -177 -177 -179 -181 -183 -186 -191 -195 -199 -195 -190 -188 -186 -185 -186 -186 -185 -182 -177 -173 -169 -170 -171 -171 -170 -169 -170 -171 -172 -172 -173 -176 -178 -181 -183 -185 -186 -187 -189 -188 -189 -191 -192 -192 -194 -195 -195 -196 -198 -199 -200 -201 -203 -204 -206 -208 -208 -209 -209 -210 -210 -210 -211 -212 -214 -215 -217 -219 -220 -219 -219 -218 -218 -220 -219 -217 -213 -208 -204 -200 -198 -208 -212 -214 -215 -219 -222 -225 -227 -229 -231 -233 -234 -235 -237 -239 -241 -240 -238 -236 -236 -235 -234 -234 -233 -233 -232 -232 -232 -231 -229 -227 -227 -226 -226 -225 -224 -223 -223 -223 -224 -225 -223 -218 -214 -207 -203 -202 -201 -199 -196 -193 -194 -196 -195 -196 -196 -197 -196 -196 -196 -196 -195 -194 -193 -190 -191 -196 -198 -199 -198 -196 -196 -197 -199 -201 -206 -208 -210 -211 -213 -216 -219 -222 -222 -223 -222 -222 -221 -221 -220 -220 -221 -222 -222 -219 -217 -215 -213 -212 -210 -208 -205 -203 -200 -198 -193 -189 -185 -182 -180 -179 -179 -180 -181 -182 -183 -184 -185 -186 -186 -188 -190 -193 -190 -184 -181 -179 -177 -174 -171 -165 -159 -155 -150 -145 -144 -140 -135 -132 -130 -127 -124 -114 -109 -106 -106 -107 -109 -108 -109 -110 -105 -111 -113 -121 -125 -119 -114 -92 -82 -75 -77 -80 -83 -83 -79 -73 -75 -75 -73 -71 -69 -72 -77 -79 -78 -77 -76 -76 -73 -65 -68 -73 -75 -69 -66 -64 -65 -67 -66 -61 -61 -61 -63 -64 -64 -69 -75 -69 -68 -70 -76 -71 -75 -73 -73 -70 -67 -67 -67 -71 -71 -68 -66 -66 -67 -69 -65 -53 -54 -56 -55 -56 -51 -53 -57 -57 -49 -39 -34 -38 -42 -38 -40 -41 -40 -33 -33 -33 -32 -32 -31 -26 -22
155 122 109 114 153 183 188 202 239 239 217 235 262 252 229 224 220 212 201 193 193 188 171 158 155 158 158 160 166 158 155 151 138 120 109 87 93 99 96 81 77 79 76 75 72 71 74 65 67 67 77 60 49 49 56 53 52 60 66 67 64 67 67 62 50 50 43 40 36 47 44 46 39 42 37 33 38 38 34 33 36 57 77 81 72 67 65 70 77 70 56 58 54 55 48 34 12 1 -12 -20 -24 -24 -28 -35 -39 -39 -42 -44 -39 -33 -42 -39 -35 -24 -34 -38 -38 -30 -30 -38 -49 -51 -63 -64 -68 -77 -82 -80 -84 -85 -82 -86 -75 -82 -76 -87 -93 -91 -95 -110 -104 -114 -116 -111 -115 -110 -121 -126 -133 -138 -141 -142 -141 -139 -142 -147 -159 -159 -156 -148 -145 -140 -141 -142 -142 -136 -125 -113 -101 -103 -110 -117 -126 -136 -141 -147 -150 -153 -157 -162 -171 -173 -176 -179 -181 -182 -179 -175 -170 -164 -162 -161 -155 -109 -111 -107 -111 -115 -126 -127 -132 -136 -134 -131 -131 -128 -126 -126 -125 -116 -131 -136 -146 -167 -191 -170 -157 -160 -154 -141 -147 -153 -154 -155 -151 -146 -145 -142 -139 -138 -140 -140 -148 -160 -164 -168 -169 -169 -174 -173 -175 -174 -173 -170 -166 -166 -172 -173 -169 -165 -155 -138 -115 -143 -159 -165 -167 -168 -169 -173 -177 -175 -180 -176 -172 -171 -171 -171 -171 -171 -173 -176 -177 -174 -164 -155 -144 -135 -117 -131 -142 -153 -158 -161 -160 -164 -167 -168 -170 -160 -156 -156 -156 -152 -151 -150 -150 -153 -147 -146 -150 -153 -155 -155 -152 -153 -156 -158 -159 -159 -157 -152 -149 -148 -155 -159 -169 -180 -178 -171 -169 -170 -170 -166 -162 -158 -158 -158 -155 -168 -167 -169 -171 -171 -177 -177 -174 -178 -181 -184 -187 -191 -195 -198 -198 -193 -190 -189 -189 -189 -188 -188 -183 -176 -172 -170 -173 -173 -175 -176 -177 -177 -177 -175 -175 -176 -178 -181 -184 -187 -188 -189 -190 -190 -190 -191 -191 -191 -189 -195 -196 -197 -198 -199 -200 -202 -203 -204 -206 -207 -207 -208 -208 -208 -209 -209 -209 -210 -211 -212 -213 -215 -216 -217 -217 -216 -216 -216 -217 -216 -213 -210 -206 -205 -204 -205 -209 -212 -215 -217 -219 -221 -221 -224 -228 -230 -231 -233 -233 -235 -236 -238 -237 -236 -234 -234 -232 -232 -231 -230 -229 -229 -229 -228 -227 -225 -223 -223 -223 -223 -222 -221 -220 -220 -220 -221 -221 -220 -212 -211 -207 -203 -201 -199 -197 -195 -194 -193 -194 -194 -194 -194 -194 -193 -192 -193 -193 -193 -193 -192 -191 -193 -197 -199 -200 -199 -195 -194 -195 -196 -200 -203 -206 -208 -210 -212 -215 -218 -222 -223 -223 -222 -221 -220 -219 -219 -218 -217 -217 -217 -215 -214 -213 -212 -210 -208 -207 -204 -203 -201 -199 -194 -189 -186 -182 -181 -180 -180 -181 -182 -183 -185 -186 -185 -185 -187 -186 -186 -187 -185 -181 -179 -176 -174 -172 -169 -163 -158 -154 -149 -146 -144 -140 -135 -127 -122 -119 -113 -104 -108 -106 -107 -109 -113 -111 -111 -113 -113 -115 -116 -121 -123 -116 -110 -96 -87 -77 -75 -77 -78 -76 -76 -76 -75 -78 -76 -73 -71 -75 -79 -77 -68 -75 -78 -78 -78 -75 -75 -79 -78 -71 -67 -62 -65 -68 -66 -62 -60 -61 -63 -65 -66 -69 -71 -69 -70 -70 -74 -71 -72 -72 -72 -72 -70 -69 -71 -72 -72 -69 -64 -70 -71 -73 -73 -67 -68 -67 -67 -69 -65 -58 -64 -64 -56 -48 -45 -44 -42 -37 -40 -40 -36 -29 -32 -32 -28 -27 -27 -22 -16
152 125 119 115 130 161 162 176 213 208 207 213 219 214 202 212 202 191 185 188 199 192 174 171 187 209 195 174 188 175 176 191 182 157 130 104 96 92 82 84 78 77 74 77 69 78 78 62 59 60 61 54 49 47 48 54 68 56 63 69 65 66 66 66 53 43 45 46 39 32 33 49 37 35 38 37 42 42 35 42 57 58 87 86 76 94 86 112 87 74 59 58 53 47 31 28 21 4 -13 -22 -27 -26 -28 -32 -35 -39 -44 -45 -38 -29 -39 -39 -45 -22 -31 -36 -36 -44 -32 -40 -57 -48 -50 -66 -78 -75 -66 -84 -73 -83 -83 -75 -74 -80 -78 -89 -96 -100 -93 -104 -99 -98 -113 -109 -115 -113 -122 -127 -134 -133 -134 -137 -139 -140 -144 -150 -157 -158 -155 -142 -146 -142 -136 -139 -143 -131 -126 -121 -108 -100 -107 -115 -124 -133 -139 -143 -148 -152 -154 -159 -167 -171 -174 -176 -177 -178 -176 -174 -171 -168 -167 -166 -160 -140 -131 -122 -119 -125 -142 -132 -128 -124 -121 -119 -119 -118 -118 -119 -121 -121 -131 -139 -151 -160 -167 -159 -156 -159 -160 -152 -150 -150 -149 -147 -143 -142 -141 -139 -134 -133 -140 -150 -163 -173 -185 -173 -169 -170 -183 -174 -168 -160 -165 -166 -165 -168 -174 -181 -165 -149 -134 -134 -132 -149 -160 -166 -168 -168 -166 -160 -170 -173 -176 -176 -174 -174 -174 -174 -174 -175 -176 -177 -179 -178 -168 -158 -147 -138 -133 -142 -150 -157 -161 -160 -151 -158 -162 -164 -164 -159 -156 -155 -153 -151 -150 -148 -145 -148 -148 -149 -151 -155 -158 -159 -160 -163 -168 -167 -165 -164 -161 -157 -155 -156 -160 -165 -172 -178 -178 -174 -171 -170 -168 -164 -160 -158 -159 -162 -166 -170 -170 -170 -172 -175 -181 -180 -177 -179 -181 -184 -188 -192 -196 -199 -203 -198 -194 -193 -193 -192 -191 -190 -184 -178 -173 -171 -173 -173 -174 -176 -178 -178 -177 -176 -176 -175 -180 -184 -187 -189 -191 -191 -191 -191 -190 -191 -192 -192 -192 -195 -197 -198 -199 -200 -201 -202 -204 -204 -205 -205 -205 -206 -206 -206 -207 -207 -208 -208 -209 -210 -211 -212 -213 -214 -214 -214 -214 -214 -213 -211 -208 -205 -205 -205 -206 -207 -209 -212 -215 -216 -218 -219 -219 -219 -219 -225 -228 -230 -230 -232 -233 -234 -233 -233 -232 -231 -230 -229 -228 -227 -226 -225 -224 -223 -222 -221 -219 -219 -218 -218 -218 -217 -217 -216 -216 -216 -216 -214 -210 -208 -205 -202 -199 -197 -195 -193 -192 -192 -192 -193 -193 -192 -190 -188 -185 -189 -191 -191 -190 -189 -190 -191 -195 -197 -199 -198 -196 -195 -196 -197 -199 -202 -205 -208 -209 -211 -214 -217 -219 -221 -222 -222 -221 -219 -218 -217 -215 -213 -211 -212 -213 -215 -212 -211 -209 -207 -206 -203 -202 -200 -197 -194 -190 -186 -182 -178 -179 -180 -181 -182 -183 -185 -185 -185 -184 -184 -183 -183 -182 -180 -178 -176 -174 -172 -170 -167 -162 -158 -153 -149 -146 -143 -138 -132 -124 -119 -115 -110 -107 -108 -109 -110 -112 -117 -117 -118 -119 -120 -122 -122 -122 -121 -115 -109 -101 -93 -83 -78 -76 -75 -75 -77 -78 -78 -78 -71 -72 -74 -78 -79 -77 -74 -79 -81 -81 -80 -79 -78 -80 -79 -72 -65 -56 -62 -66 -65 -63 -62 -59 -63 -66 -68 -70 -71 -71 -72 -72 -73 -73 -73 -73 -75 -78 -73 -72 -73 -73 -75 -72 -70 -73 -74 -77 -71 -63 -66 -64 -69 -71 -70 -69 -74 -65 -63 -59 -57 -56 -54 -47 -46 -45 -46 -44 -41 -36 -33 -35 -31 -26 -31
150 136 120 115 117 143 150 172 180 176 176 176 179 176 188 185 186 177 187 204 202 194 205 234 241 240 209 203 216 198 165 172 187 173 144 111 117 123 121 120 129 105 105 83 68 75 80 63 84 100 74 64 53 45 51 67 64 52 63 64 63 63 63 66 52 44 41 42 39 24 19 47 51 35 37 42 43 39 38 52 69 70 62 66 96 130 98 89 80 63 67 59 47 38 39 35 32 22 2 -24 -26 -27 -28 -30 -36 -39 -41 -36 -42 -42 -45 -48 -41 -45 -33 -33 -34 -50 -44 -51 -66 -68 -65 -68 -75 -80 -76 -79 -63 -84 -84 -83 -74 -85 -88 -94 -98 -102 -99 -109 -105 -107 -112 -102 -110 -109 -116 -121 -127 -124 -127 -134 -138 -139 -146 -152 -161 -163 -165 -157 -161 -149 -138 -133 -139 -133 -128 -128 -112 -99 -103 -112 -122 -132 -141 -146 -152 -154 -155 -156 -162 -168 -172 -173 -174 -174 -173 -171 -171 -171 -171 -171 -168 -165 -150 -133 -122 -121 -130 -124 -121 -110 -105 -106 -107 -108 -110 -113 -117 -121 -130 -137 -155 -150 -145 -145 -150 -159 -169 -160 -154 -148 -145 -142 -139 -139 -139 -137 -129 -127 -142 -158 -178 -177 -173 -163 -163 -157 -174 -167 -166 -163 -164 -164 -163 -165 -168 -164 -155 -136 -112 -136 -147 -160 -166 -170 -172 -172 -171 -170 -172 -173 -174 -176 -176 -177 -178 -178 -178 -178 -178 -178 -180 -187 -172 -163 -153 -143 -147 -156 -161 -165 -168 -169 -162 -160 -160 -161 -158 -156 -154 -152 -148 -150 -151 -150 -150 -151 -151 -152 -153 -157 -163 -164 -166 -170 -181 -175 -171 -169 -165 -161 -160 -161 -166 -170 -175 -179 -179 -176 -173 -172 -168 -163 -158 -157 -160 -167 -176 -173 -172 -172 -172 -175 -179 -180 -178 -179 -181 -183 -188 -193 -196 -201 -211 -202 -197 -196 -196 -195 -194 -193 -187 -180 -174 -171 -172 -171 -170 -173 -180 -178 -176 -177 -178 -180 -184 -187 -190 -193 -195 -194 -192 -191 -190 -191 -192 -193 -195 -196 -197 -198 -199 -200 -201 -203 -205 -204 -203 -204 -203 -204 -203 -203 -204 -205 -205 -206 -207 -208 -208 -209 -211 -211 -211 -211 -212 -212 -210 -207 -203 -200 -202 -204 -207 -208 -209 -212 -214 -215 -216 -217 -219 -220 -222 -224 -226 -226 -227 -229 -229 -230 -229 -229 -229 -229 -227 -226 -224 -223 -222 -221 -219 -218 -217 -216 -215 -214 -214 -215 -214 -214 -213 -212 -212 -212 -211 -210 -207 -205 -202 -200 -197 -195 -192 -191 -190 -191 -191 -191 -191 -190 -188 -187 -187 -189 -190 -189 -188 -186 -186 -188 -192 -195 -198 -197 -196 -195 -196 -197 -199 -202 -205 -207 -208 -211 -212 -215 -218 -219 -220 -221 -220 -218 -216 -214 -213 -211 -209 -208 -208 -208 -208 -208 -206 -206 -204 -202 -201 -199 -196 -193 -190 -187 -184 -181 -181 -180 -181 -182 -183 -185 -184 -185 -182 -181 -180 -179 -178 -176 -175 -174 -172 -170 -168 -165 -161 -157 -152 -148 -145 -142 -136 -130 -120 -116 -112 -110 -112 -110 -112 -113 -116 -124 -122 -126 -127 -128 -129 -127 -123 -120 -113 -107 -106 -99 -86 -80 -75 -73 -74 -79 -79 -81 -84 -79 -76 -78 -81 -82 -79 -79 -85 -86 -84 -83 -83 -80 -82 -82 -74 -67 -63 -64 -66 -65 -65 -64 -55 -65 -68 -70 -71 -73 -74 -74 -74 -75 -74 -74 -73 -74 -74 -71 -73 -74 -74 -79 -74 -74 -75 -74 -75 -74 -73 -72 -73 -73 -73 -73 -72 -73 -59 -70 -68 -68 -67 -67 -63 -53 -50 -59 -60 -52 -44 -41 -50 -41 -39 -53
144 142 116 108 110 138 155 146 155 169 184 173 169 162 166 165 162 179 188 193 196 198 212 224 239 247 233 254 255 218 189 172 169 167 131 128 129 124 132 138 132 117 131 107 74 74 95 78 80 78 73 66 59 49 45 49 53 60 56 60 60 49 49 51 45 34 36 37 34 25 14 29 42 37 48 50 53 58 50 72 69 61 65 82 136 128 91 80 70 58 59 50 39 36 53 46 26 20 13 -23 -25 -25 -27 -31 -32 -35 -41 -37 -35 -43 -45 -40 -43 -41 -30 -28 -39 -46 -46 -61 -71 -72 -62 -62 -68 -83 -78 -90 -75 -79 -79 -69 -81 -87 -83 -95 -99 -102 -107 -110 -110 -113 -114 -111 -113 -112 -114 -114 -116 -119 -127 -136 -141 -142 -149 -156 -163 -163 -161 -159 -166 -141 -121 -109 -118 -126 -125 -123 -116 -98 -98 -110 -123 -134 -143 -151 -158 -158 -158 -157 -160 -164 -168 -170 -171 -172 -172 -171 -172 -172 -172 -171 -170 -165 -156 -143 -130 -125 -123 -119 -111 -101 -94 -93 -93 -96 -100 -103 -109 -115 -124 -129 -136 -133 -130 -135 -142 -151 -155 -153 -149 -145 -142 -139 -138 -139 -140 -138 -135 -137 -150 -164 -177 -174 -171 -168 -167 -162 -166 -164 -165 -165 -164 -162 -160 -159 -150 -152 -156 -153 -147 -157 -163 -171 -173 -173 -174 -177 -177 -177 -175 -172 -175 -178 -181 -182 -182 -182 -182 -181 -180 -178 -177 -179 -172 -167 -162 -160 -161 -167 -171 -175 -173 -170 -166 -161 -160 -158 -154 -150 -148 -148 -149 -153 -155 -158 -158 -156 -155 -155 -157 -161 -167 -166 -164 -168 -179 -176 -172 -169 -166 -165 -165 -166 -169 -173 -176 -178 -177 -175 -174 -173 -169 -164 -157 -155 -159 -164 -169 -170 -172 -173 -174 -176 -178 -180 -180 -180 -182 -183 -186 -191 -194 -199 -205 -203 -199 -200 -199 -197 -194 -191 -186 -181 -175 -172 -171 -168 -165 -169 -176 -177 -176 -178 -181 -184 -187 -189 -192 -197 -198 -196 -194 -192 -191 -191 -192 -194 -195 -197 -198 -199 -200 -200 -201 -203 -204 -202 -202 -201 -201 -202 -201 -201 -201 -202 -202 -203 -204 -206 -206 -207 -207 -207 -207 -207 -208 -207 -204 -201 -199 -198 -200 -203 -205 -207 -208 -210 -212 -213 -214 -216 -217 -218 -221 -222 -223 -219 -222 -225 -225 -223 -224 -226 -225 -225 -223 -221 -219 -218 -217 -215 -215 -214 -213 -212 -210 -210 -210 -211 -211 -212 -209 -208 -207 -206 -205 -205 -204 -202 -201 -198 -195 -193 -191 -189 -190 -190 -190 -189 -189 -187 -184 -187 -191 -188 -189 -187 -186 -184 -182 -184 -188 -191 -194 -195 -195 -195 -196 -197 -199 -204 -206 -207 -208 -209 -211 -215 -216 -216 -217 -218 -218 -216 -214 -212 -209 -208 -206 -204 -204 -204 -204 -203 -200 -202 -201 -200 -199 -198 -195 -192 -190 -186 -184 -183 -181 -180 -181 -182 -182 -184 -186 -186 -180 -178 -177 -176 -175 -173 -172 -171 -170 -168 -166 -163 -160 -156 -152 -147 -142 -139 -134 -128 -120 -114 -113 -114 -117 -117 -117 -117 -124 -138 -130 -136 -137 -136 -136 -128 -121 -118 -108 -95 -107 -99 -84 -77 -77 -76 -78 -80 -79 -75 -83 -80 -86 -85 -82 -84 -80 -88 -89 -91 -87 -88 -87 -87 -86 -82 -76 -69 -68 -68 -67 -68 -65 -65 -60 -61 -71 -71 -72 -74 -76 -77 -79 -77 -75 -74 -74 -74 -74 -67 -74 -74 -72 -65 -74 -76 -76 -75 -76 -76 -76 -75 -75 -75 -74 -74 -73 -73 -67 -73 -70 -70 -63 -56 -67 -54 -46 -65 -69 -64 -66 -67 -70 -48 -42 -68
131 109 105 106 142 190 242 232 203 198 220 222 188 182 182 176 159 164 188 198 202 193 199 211 226 239 238 232 227 223 199 169 159 133 121 120 138 127 121 123 125 118 104 86 79 66 69 70 75 67 51 55 51 46 40 46 47 53 55 53 53 43 43 51 40 29 26 29 32 18 28 42 44 38 53 60 67 60 62 83 79 54 74 103 101 85 92 77 75 77 65 52 43 34 45 47 30 17 2 -22 -26 -29 -25 -28 -29 -31 -35 -34 -33 -42 -34 -47 -42 -48 -36 -32 -46 -51 -62 -68 -71 -64 -70 -68 -64 -81 -84 -88 -76 -80 -81 -75 -97 -90 -95 -100 -103 -103 -110 -115 -112 -116 -112 -115 -112 -107 -110 -111 -111 -112 -127 -138 -139 -144 -150 -157 -161 -159 -154 -150 -141 -118 -104 -99 -104 -108 -109 -112 -104 -93 -94 -108 -123 -136 -146 -155 -160 -160 -159 -157 -160 -160 -165 -167 -169 -172 -173 -173 -172 -172 -172 -172 -171 -167 -159 -148 -136 -126 -118 -115 -107 -98 -90 -84 -78 -78 -82 -87 -92 -97 -104 -108 -112 -114 -116 -121 -126 -130 -137 -141 -143 -142 -137 -130 -139 -145 -149 -144 -144 -148 -156 -160 -164 -166 -167 -168 -164 -161 -163 -165 -169 -176 -168 -156 -140 -115 -138 -158 -167 -169 -167 -169 -171 -175 -176 -177 -179 -181 -183 -183 -181 -180 -181 -183 -184 -185 -185 -185 -184 -183 -182 -180 -177 -176 -173 -171 -168 -168 -170 -175 -181 -190 -178 -169 -167 -164 -160 -156 -151 -153 -155 -158 -162 -162 -162 -163 -161 -158 -155 -157 -161 -166 -170 -171 -170 -173 -176 -175 -173 -171 -169 -168 -168 -169 -170 -173 -175 -176 -175 -173 -171 -172 -170 -166 -160 -154 -150 -158 -164 -167 -171 -174 -176 -178 -181 -185 -182 -182 -183 -184 -184 -187 -190 -193 -197 -198 -197 -199 -199 -199 -197 -193 -189 -184 -179 -174 -170 -167 -163 -166 -173 -176 -177 -180 -182 -185 -187 -189 -192 -195 -195 -195 -194 -193 -190 -186 -190 -194 -196 -197 -198 -199 -199 -199 -200 -201 -201 -199 -199 -199 -199 -200 -199 -199 -199 -198 -199 -200 -202 -203 -203 -204 -204 -204 -203 -201 -200 -199 -197 -196 -196 -197 -198 -201 -204 -205 -206 -208 -211 -212 -213 -214 -215 -216 -217 -219 -220 -218 -216 -212 -217 -219 -220 -221 -222 -221 -219 -217 -214 -211 -211 -210 -210 -209 -208 -208 -207 -206 -207 -207 -207 -207 -208 -211 -205 -202 -201 -201 -200 -199 -198 -196 -194 -192 -192 -191 -190 -190 -189 -188 -187 -183 -178 -183 -186 -185 -183 -184 -184 -182 -181 -182 -184 -186 -189 -191 -193 -194 -196 -198 -202 -209 -208 -208 -210 -210 -213 -213 -214 -214 -214 -214 -213 -212 -210 -207 -206 -205 -203 -202 -201 -201 -200 -199 -199 -200 -198 -198 -199 -196 -194 -192 -191 -186 -184 -182 -181 -180 -180 -180 -181 -182 -183 -182 -178 -176 -174 -173 -171 -170 -170 -169 -168 -166 -164 -162 -158 -154 -150 -146 -141 -137 -133 -128 -120 -107 -115 -119 -121 -121 -121 -121 -123 -130 -130 -135 -140 -134 -132 -127 -122 -117 -111 -106 -111 -101 -93 -98 -86 -83 -91 -87 -85 -84 -85 -87 -92 -92 -88 -87 -85 -84 -85 -81 -82 -84 -87 -91 -86 -82 -77 -73 -73 -73 -71 -71 -69 -67 -65 -64 -69 -71 -74 -75 -74 -77 -79 -78 -76 -75 -74 -72 -73 -72 -75 -75 -75 -74 -76 -77 -77 -77 -77 -76 -76 -72 -75 -76 -73 -69 -72 -71 -68 -69 -64 -60 -61 -63 -69 -64 -59 -63 -56 -64 -68 -66 -64 -46 -56 -70
112 97 98 136 213 262 263 287 260 231 214 226 250 237 186 190 196 176 195 232 222 204 199 213 237 216 201 203 201 201 200 172 145 137 131 128 140 127 118 116 111 113 106 105 91 77 64 65 59 55 56 51 48 49 50 54 58 50 39 26 26 24 24 28 37 36 35 20 25 14 47 47 38 67 84 75 65 70 65 78 68 48 76 99 97 88 75 76 80 80 58 52 37 27 46 43 21 2 -18 -26 -30 -31 -28 -29 -32 -31 -32 -32 -31 -35 -32 -34 -48 -52 -40 -44 -50 -54 -69 -73 -69 -66 -76 -80 -81 -75 -87 -92 -87 -89 -92 -96 -100 -99 -104 -107 -110 -114 -114 -112 -114 -116 -113 -110 -109 -106 -106 -109 -112 -118 -132 -140 -144 -149 -155 -160 -162 -158 -147 -145 -129 -118 -106 -97 -90 -94 -95 -95 -93 -94 -97 -110 -124 -137 -148 -158 -163 -163 -163 -163 -164 -163 -165 -168 -170 -172 -173 -173 -174 -174 -175 -174 -172 -169 -163 -153 -140 -130 -122 -115 -106 -96 -86 -76 -62 -61 -64 -70 -73 -76 -83 -87 -87 -94 -100 -109 -113 -109 -122 -130 -139 -142 -141 -145 -149 -152 -160 -148 -146 -154 -161 -153 -149 -160 -166 -169 -158 -158 -162 -165 -171 -178 -170 -155 -140 -123 -150 -178 -183 -187 -180 -179 -177 -177 -179 -181 -183 -186 -188 -188 -187 -187 -187 -187 -188 -188 -187 -187 -187 -185 -186 -183 -176 -176 -175 -173 -171 -174 -175 -179 -181 -183 -174 -163 -168 -166 -161 -157 -155 -159 -164 -168 -174 -169 -167 -167 -164 -161 -159 -161 -167 -172 -176 -176 -176 -178 -177 -175 -175 -173 -171 -171 -172 -172 -171 -173 -175 -175 -174 -174 -175 -175 -174 -169 -163 -157 -153 -157 -161 -165 -170 -174 -177 -178 -180 -183 -181 -182 -182 -182 -180 -183 -185 -186 -190 -193 -194 -197 -201 -201 -201 -197 -193 -188 -185 -178 -171 -166 -160 -162 -172 -176 -178 -181 -184 -185 -186 -188 -190 -192 -192 -193 -194 -195 -192 -191 -193 -195 -196 -197 -199 -199 -199 -199 -199 -199 -200 -198 -198 -197 -197 -198 -197 -197 -197 -197 -197 -198 -199 -201 -201 -202 -201 -201 -198 -195 -192 -193 -190 -190 -192 -194 -196 -199 -201 -202 -204 -207 -210 -212 -212 -212 -213 -214 -214 -216 -218 -218 -216 -215 -215 -217 -215 -218 -218 -218 -216 -213 -209 -207 -206 -205 -204 -204 -203 -204 -205 -204 -204 -203 -203 -202 -202 -203 -199 -197 -197 -198 -196 -196 -195 -194 -192 -191 -193 -192 -191 -190 -189 -187 -187 -184 -180 -182 -184 -184 -184 -183 -182 -181 -179 -179 -179 -180 -182 -186 -189 -192 -194 -197 -200 -204 -205 -205 -205 -206 -207 -209 -211 -211 -211 -211 -207 -208 -207 -202 -203 -202 -200 -199 -198 -198 -197 -196 -196 -196 -195 -195 -200 -194 -193 -190 -193 -185 -183 -181 -179 -179 -179 -179 -179 -180 -180 -178 -175 -173 -172 -170 -168 -167 -168 -167 -166 -165 -163 -161 -157 -153 -150 -144 -140 -136 -134 -132 -130 -126 -126 -126 -128 -125 -125 -121 -119 -122 -124 -131 -143 -129 -128 -123 -117 -117 -114 -112 -108 -99 -83 -73 -79 -78 -88 -89 -87 -85 -85 -92 -97 -98 -92 -91 -90 -89 -86 -81 -79 -79 -82 -83 -83 -80 -78 -76 -77 -78 -76 -75 -72 -71 -68 -66 -68 -72 -76 -80 -82 -80 -79 -79 -77 -76 -76 -75 -76 -75 -76 -77 -77 -77 -78 -79 -79 -79 -79 -79 -79 -78 -79 -79 -77 -77 -76 -73 -72 -73 -70 -65 -70 -72 -77 -74 -72 -75 -73 -72 -73 -63 -72 -66 -74 -76
119 99 118 172 249 250 288 321 274 245 256 254 251 262 196 175 190 206 212 232 219 194 202 233 238 203 168 159 170 171 154 146 157 157 168 149 138 112 102 98 94 91 108 119 105 88 65 58 53 53 56 61 43 49 48 52 51 45 46 36 30 22 22 15 20 23 30 16 21 6 29 30 40 80 81 69 61 72 59 64 46 56 86 96 91 98 81 64 68 76 54 51 35 21 22 28 18 1 -22 -27 -29 -31 -29 -28 -31 -31 -31 -30 -31 -31 -31 -36 -43 -44 -49 -57 -51 -58 -66 -73 -68 -74 -81 -76 -75 -83 -72 -98 -92 -91 -98 -101 -99 -99 -106 -113 -115 -117 -118 -115 -112 -112 -111 -112 -108 -100 -100 -108 -121 -129 -138 -150 -153 -154 -160 -165 -164 -159 -154 -143 -132 -125 -111 -97 -79 -84 -86 -86 -90 -97 -108 -118 -130 -141 -151 -159 -166 -166 -167 -169 -169 -169 -169 -170 -171 -172 -174 -175 -177 -177 -177 -176 -173 -169 -163 -156 -147 -137 -127 -119 -109 -97 -86 -79 -69 -63 -58 -60 -55 -56 -59 -66 -64 -80 -90 -100 -115 -118 -122 -129 -133 -135 -137 -146 -149 -149 -148 -142 -133 -143 -143 -138 -142 -164 -187 -164 -155 -153 -164 -172 -186 -185 -166 -156 -145 -150 -176 -188 -191 -192 -186 -183 -181 -179 -181 -184 -186 -188 -189 -190 -190 -191 -191 -191 -191 -190 -190 -190 -190 -189 -189 -186 -180 -178 -177 -175 -173 -176 -176 -176 -175 -175 -170 -165 -161 -158 -156 -156 -157 -162 -166 -168 -166 -165 -163 -160 -160 -163 -165 -170 -179 -181 -181 -180 -179 -180 -182 -181 -178 -175 -172 -172 -179 -188 -177 -175 -175 -175 -175 -175 -176 -176 -177 -173 -169 -163 -158 -159 -161 -163 -168 -171 -177 -178 -178 -179 -180 -181 -181 -181 -178 -178 -182 -181 -186 -188 -192 -196 -200 -201 -201 -199 -196 -193 -191 -185 -179 -172 -166 -164 -170 -176 -182 -184 -186 -186 -186 -188 -190 -190 -190 -191 -192 -193 -193 -194 -195 -197 -197 -197 -198 -199 -198 -197 -197 -197 -198 -197 -196 -195 -194 -194 -194 -195 -195 -195 -195 -195 -196 -198 -199 -201 -199 -196 -192 -191 -191 -191 -187 -181 -190 -194 -195 -199 -198 -200 -202 -205 -208 -211 -211 -211 -212 -212 -213 -214 -215 -215 -214 -213 -212 -212 -205 -213 -214 -213 -211 -209 -205 -202 -201 -201 -200 -200 -199 -200 -202 -201 -201 -200 -199 -198 -198 -198 -196 -195 -196 -195 -191 -194 -193 -192 -191 -190 -191 -189 -190 -190 -189 -188 -187 -186 -184 -183 -183 -183 -183 -181 -179 -178 -177 -177 -175 -173 -170 -179 -186 -189 -193 -197 -201 -203 -204 -203 -203 -203 -204 -206 -208 -208 -208 -208 -206 -205 -204 -202 -202 -201 -199 -198 -196 -195 -194 -193 -192 -191 -193 -193 -190 -191 -190 -188 -188 -184 -182 -180 -178 -178 -177 -176 -176 -175 -175 -174 -172 -171 -170 -168 -167 -166 -166 -165 -164 -164 -164 -160 -156 -156 -153 -144 -141 -139 -138 -137 -138 -136 -133 -132 -134 -133 -130 -121 -113 -114 -115 -121 -129 -123 -119 -116 -117 -119 -116 -116 -110 -101 -84 -76 -83 -79 -85 -90 -87 -82 -85 -86 -90 -93 -91 -89 -87 -85 -81 -79 -79 -78 -78 -75 -80 -79 -79 -80 -81 -80 -78 -77 -74 -72 -71 -71 -72 -74 -75 -78 -82 -82 -81 -80 -78 -76 -75 -75 -76 -77 -77 -77 -78 -79 -80 -81 -81 -81 -81 -81 -82 -81 -80 -81 -78 -78 -74 -75 -74 -74 -69 -65 -71 -74 -77 -76 -76 -76 -75 -75 -75 -72 -74 -72 -75 -74
112 105 159 182 199 212 241 297 357 300 311 273 244 247 208 175 189 237 203 214 194 238 267 264 267 215 179 141 135 141 141 153 172 155 147 134 109 99 96 96 100 99 89 100 94 80 66 56 51 53 53 52 48 58 56 53 40 35 39 34 33 33 33 35 37 28 18 11 7 12 20 20 41 71 63 59 61 69 45 23 23 53 69 84 84 86 81 69 65 59 54 54 32 22 16 3 3 -17 -25 -27 -32 -32 -29 -28 -27 -29 -30 -32 -36 -24 -24 -44 -43 -45 -52 -53 -59 -65 -63 -74 -76 -81 -76 -71 -82 -91 -76 -86 -88 -96 -101 -101 -100 -106 -114 -123 -113 -116 -118 -117 -115 -111 -105 -109 -109 -109 -113 -119 -126 -132 -137 -146 -150 -154 -161 -164 -159 -148 -143 -138 -132 -120 -107 -85 -70 -78 -82 -88 -95 -103 -114 -125 -135 -144 -152 -159 -162 -164 -167 -167 -170 -172 -173 -173 -174 -175 -175 -176 -178 -177 -177 -175 -173 -170 -165 -158 -151 -143 -135 -127 -117 -107 -97 -89 -83 -75 -69 -65 -60 -61 -66 -74 -78 -81 -84 -91 -106 -113 -114 -115 -114 -115 -121 -131 -136 -137 -137 -135 -129 -130 -132 -137 -146 -158 -167 -156 -148 -142 -158 -162 -152 -155 -160 -164 -167 -175 -187 -197 -194 -192 -189 -188 -188 -187 -188 -189 -190 -191 -192 -193 -193 -193 -194 -193 -193 -193 -193 -194 -194 -192 -191 -189 -185 -181 -178 -175 -174 -177 -177 -176 -173 -171 -166 -159 -151 -153 -155 -156 -159 -162 -165 -167 -167 -166 -164 -164 -165 -168 -171 -175 -180 -181 -182 -181 -182 -184 -189 -184 -179 -177 -174 -174 -178 -181 -177 -176 -175 -176 -176 -176 -177 -178 -179 -176 -172 -167 -162 -162 -163 -166 -171 -174 -178 -179 -178 -178 -179 -179 -179 -179 -176 -175 -178 -180 -182 -187 -191 -195 -199 -202 -202 -201 -199 -197 -196 -192 -186 -179 -173 -170 -173 -177 -181 -184 -187 -189 -191 -191 -192 -191 -190 -190 -190 -190 -192 -194 -195 -195 -195 -196 -198 -201 -198 -196 -194 -194 -195 -195 -195 -194 -192 -192 -192 -192 -192 -192 -192 -192 -193 -193 -194 -195 -195 -194 -193 -193 -194 -194 -192 -190 -192 -195 -197 -202 -198 -198 -200 -203 -206 -207 -208 -209 -210 -211 -211 -211 -210 -210 -209 -208 -207 -205 -199 -193 -203 -206 -205 -203 -200 -198 -197 -196 -197 -197 -197 -198 -198 -197 -196 -195 -195 -194 -193 -194 -194 -194 -196 -200 -194 -193 -192 -191 -190 -188 -187 -187 -188 -189 -189 -188 -187 -186 -184 -183 -182 -181 -180 -179 -178 -176 -174 -175 -174 -172 -171 -177 -183 -187 -191 -195 -199 -205 -202 -201 -200 -200 -201 -203 -205 -205 -204 -204 -203 -202 -201 -200 -199 -198 -197 -195 -193 -191 -190 -190 -189 -189 -190 -190 -188 -189 -189 -187 -186 -183 -181 -179 -178 -177 -176 -174 -173 -170 -171 -170 -169 -168 -167 -166 -165 -164 -164 -163 -163 -162 -162 -159 -155 -153 -150 -145 -144 -143 -141 -141 -141 -139 -136 -134 -134 -132 -127 -117 -109 -107 -107 -113 -118 -116 -113 -108 -105 -97 -111 -118 -111 -102 -90 -85 -88 -93 -89 -90 -89 -79 -83 -86 -89 -90 -88 -86 -84 -80 -79 -79 -80 -81 -82 -80 -82 -83 -82 -81 -83 -80 -78 -77 -75 -75 -74 -74 -73 -71 -74 -77 -81 -84 -84 -83 -80 -79 -77 -78 -78 -78 -78 -81 -86 -81 -76 -80 -82 -83 -83 -83 -82 -79 -72 -75 -76 -78 -76 -73 -74 -75 -74 -73 -79 -76 -75 -76 -77 -77 -76 -76 -76 -75 -75 -72 -67 -53
102 124 145 168 180 181 212 270 319 344 375 317 265 257 211 190 207 236 195 181 211 272 317 264 196 171 155 147 144 128 117 121 123 129 129 129 127 112 83 87 112 104 96 100 98 91 69 48 58 58 53 49 54 53 51 42 37 31 31 33 29 26 26 36 32 21 22 22 8 11 21 18 55 76 74 60 55 40 20 10 13 31 39 47 65 74 64 66 65 65 53 38 23 16 12 3 -13 -22 -28 -24 -26 -31 -29 -28 -26 -31 -33 -30 -29 -24 -27 -41 -45 -44 -52 -62 -65 -61 -63 -64 -77 -79 -69 -79 -86 -85 -79 -84 -92 -104 -105 -105 -108 -114 -116 -119 -117 -119 -118 -117 -116 -115 -110 -113 -113 -119 -126 -130 -133 -135 -135 -144 -147 -152 -160 -165 -153 -134 -136 -132 -127 -107 -85 -67 -63 -76 -86 -91 -97 -107 -119 -132 -140 -148 -156 -163 -165 -164 -170 -171 -173 -176 -176 -176 -177 -177 -177 -177 -178 -178 -177 -174 -173 -172 -167 -161 -155 -150 -143 -135 -127 -117 -107 -98 -90 -85 -80 -72 -67 -67 -77 -86 -95 -86 -78 -78 -99 -105 -101 -100 -91 -91 -100 -113 -121 -123 -127 -130 -123 -120 -123 -134 -149 -152 -153 -148 -147 -149 -162 -159 -113 -126 -158 -173 -186 -192 -191 -191 -192 -191 -190 -194 -194 -195 -193 -193 -194 -195 -195 -195 -195 -196 -197 -195 -194 -195 -196 -196 -198 -195 -193 -192 -190 -184 -178 -173 -172 -179 -180 -177 -172 -169 -163 -158 -154 -155 -155 -158 -160 -163 -164 -168 -168 -167 -166 -168 -172 -173 -174 -177 -179 -181 -182 -181 -182 -182 -182 -181 -179 -178 -175 -174 -175 -174 -175 -175 -176 -176 -179 -178 -178 -181 -182 -178 -174 -170 -164 -163 -165 -168 -175 -178 -180 -182 -177 -176 -178 -178 -178 -177 -174 -170 -174 -176 -178 -186 -190 -194 -199 -203 -205 -203 -201 -201 -201 -199 -192 -184 -177 -174 -175 -178 -180 -184 -189 -193 -195 -195 -195 -194 -191 -190 -189 -187 -190 -194 -194 -193 -192 -193 -195 -197 -195 -193 -191 -192 -192 -193 -193 -192 -190 -189 -190 -190 -190 -190 -189 -189 -189 -189 -188 -190 -192 -192 -193 -194 -198 -198 -197 -198 -194 -195 -193 -195 -192 -193 -197 -201 -202 -204 -205 -206 -208 -209 -209 -208 -206 -206 -205 -204 -201 -202 -201 -202 -202 -201 -199 -197 -193 -193 -193 -192 -193 -194 -195 -195 -194 -192 -190 -189 -191 -192 -191 -191 -191 -191 -191 -191 -192 -191 -190 -191 -188 -186 -184 -184 -185 -187 -188 -188 -186 -186 -183 -182 -181 -180 -179 -178 -177 -176 -175 -175 -174 -172 -171 -175 -181 -185 -188 -191 -194 -197 -198 -197 -197 -197 -198 -200 -202 -201 -201 -201 -199 -198 -198 -197 -196 -195 -194 -192 -190 -188 -186 -187 -187 -187 -187 -187 -185 -187 -186 -185 -186 -182 -180 -179 -178 -176 -174 -173 -171 -170 -169 -168 -167 -166 -165 -164 -162 -163 -162 -161 -161 -161 -160 -157 -152 -149 -147 -143 -145 -147 -142 -143 -143 -141 -138 -134 -133 -130 -124 -112 -103 -101 -97 -108 -112 -112 -108 -104 -107 -113 -118 -126 -112 -104 -92 -87 -85 -81 -86 -91 -92 -90 -88 -89 -91 -88 -85 -85 -82 -76 -78 -80 -81 -84 -87 -85 -85 -86 -84 -83 -81 -78 -77 -77 -77 -77 -77 -77 -73 -67 -72 -77 -82 -87 -87 -86 -81 -81 -79 -81 -80 -78 -78 -80 -81 -83 -83 -84 -85 -85 -85 -85 -84 -84 -83 -78 -80 -83 -82 -80 -77 -77 -78 -76 -76 -74 -71 -76 -77 -77 -77 -76 -76 -77 -77 -76 -76 -75
108 142 156 175 192 221 223 280 284 265 302 302 263 249 217 225 213 212 172 162 205 237 219 187 175 163 155 138 115 114 115 120 114 113 114 121 134 114 89 72 107 101 79 83 85 85 64 62 65 52 50 47 55 66 72 45 39 38 40 45 36 38 38 36 16 17 19 23 10 13 22 30 36 62 63 39 32 22 16 11 7 13 26 42 39 49 52 55 55 48 41 29 23 11 6 11 8 -21 -27 -27 -27 -30 -28 -29 -31 -27 -30 -29 -32 -27 -33 -45 -53 -49 -54 -62 -66 -54 -60 -73 -74 -72 -78 -88 -73 -71 -84 -98 -96 -106 -104 -111 -113 -117 -119 -121 -121 -121 -120 -120 -123 -118 -113 -119 -122 -128 -132 -138 -138 -140 -141 -148 -155 -155 -157 -157 -148 -148 -141 -135 -112 -84 -62 -55 -51 -71 -80 -88 -96 -108 -121 -134 -145 -153 -161 -165 -170 -170 -173 -172 -171 -174 -176 -176 -177 -177 -177 -177 -178 -178 -176 -174 -172 -169 -167 -162 -158 -153 -147 -139 -133 -127 -118 -107 -97 -90 -85 -79 -75 -74 -77 -82 -86 -85 -85 -86 -82 -80 -80 -75 -71 -70 -77 -85 -94 -113 -120 -125 -122 -120 -122 -126 -135 -142 -146 -150 -151 -148 -144 -152 -134 -157 -174 -181 -191 -192 -190 -189 -191 -191 -196 -200 -199 -197 -196 -194 -194 -195 -195 -195 -195 -199 -198 -196 -194 -194 -195 -196 -197 -197 -191 -190 -190 -183 -178 -173 -172 -180 -185 -181 -176 -168 -160 -158 -157 -159 -163 -163 -163 -163 -164 -168 -170 -171 -172 -173 -175 -175 -175 -177 -178 -179 -179 -179 -179 -180 -179 -179 -177 -176 -175 -174 -173 -172 -174 -174 -176 -179 -183 -182 -181 -186 -183 -179 -175 -171 -166 -165 -167 -172 -176 -178 -181 -190 -179 -177 -178 -178 -178 -178 -176 -175 -174 -174 -179 -186 -190 -194 -199 -202 -205 -206 -203 -203 -203 -200 -196 -189 -182 -178 -177 -179 -180 -184 -188 -194 -197 -199 -199 -199 -196 -194 -191 -188 -189 -190 -188 -188 -187 -186 -190 -192 -190 -189 -188 -190 -190 -190 -190 -190 -188 -188 -187 -187 -187 -187 -187 -187 -187 -186 -186 -188 -190 -190 -192 -193 -195 -199 -197 -194 -193 -192 -191 -192 -191 -192 -195 -200 -199 -200 -202 -204 -206 -206 -206 -206 -205 -203 -202 -201 -198 -197 -197 -197 -196 -195 -192 -190 -185 -188 -187 -187 -189 -190 -191 -192 -192 -189 -188 -187 -187 -189 -189 -189 -189 -189 -188 -189 -190 -190 -189 -189 -184 -180 -181 -182 -183 -186 -186 -186 -185 -183 -181 -179 -179 -178 -178 -177 -176 -175 -174 -174 -173 -171 -171 -173 -178 -182 -185 -188 -189 -192 -193 -193 -193 -193 -194 -196 -197 -197 -197 -197 -195 -195 -195 -195 -195 -192 -190 -188 -186 -185 -183 -184 -185 -185 -186 -186 -180 -185 -185 -184 -190 -181 -179 -178 -176 -175 -173 -172 -171 -169 -167 -166 -165 -164 -163 -162 -162 -161 -161 -160 -160 -159 -159 -158 -149 -147 -145 -143 -145 -146 -135 -143 -144 -139 -137 -131 -127 -118 -115 -112 -105 -104 -103 -107 -111 -111 -110 -109 -112 -115 -114 -114 -110 -103 -90 -89 -86 -85 -87 -92 -95 -93 -92 -91 -88 -87 -86 -85 -84 -83 -82 -82 -83 -83 -88 -87 -86 -86 -82 -82 -79 -78 -79 -79 -80 -82 -80 -79 -77 -75 -74 -75 -80 -88 -90 -88 -85 -84 -84 -84 -80 -79 -78 -82 -82 -85 -85 -87 -88 -88 -87 -87 -86 -86 -88 -87 -85 -84 -83 -81 -76 -77 -79 -78 -77 -77 -78 -79 -79 -78 -78 -76 -75 -78 -77 -78 -78 -78
111 110 117 154 171 194 204 225 219 238 270 256 219 215 200 218 204 172 149 158 178 182 179 181 169 149 134 115 113 103 97 97 97 102 112 111 107 106 81 93 107 99 79 74 85 78 60 63 56 50 47 42 51 59 50 39 44 39 38 33 26 37 37 34 17 10 20 35 6 16 18 20 38 46 46 31 16 16 25 7 6 8 10 21 30 32 24 25 24 21 26 27 20 6 -4 -8 2 -21 -26 -29 -31 -35 -32 -29 -27 -24 -30 -32 -32 -31 -30 -44 -54 -51 -49 -52 -62 -67 -65 -76 -65 -67 -78 -86 -79 -72 -85 -95 -86 -106 -109 -114 -116 -119 -119 -121 -121 -122 -124 -123 -132 -113 -106 -117 -118 -132 -142 -142 -143 -147 -151 -153 -154 -153 -151 -150 -148 -140 -130 -114 -94 -68 -52 -51 -58 -67 -75 -84 -96 -113 -127 -139 -149 -156 -162 -164 -169 -174 -175 -174 -174 -175 -176 -176 -177 -177 -176 -176 -176 -176 -175 -173 -171 -169 -166 -162 -158 -154 -150 -141 -135 -129 -122 -112 -103 -95 -89 -83 -79 -77 -77 -79 -81 -82 -81 -78 -72 -69 -67 -63 -61 -60 -60 -70 -86 -106 -118 -124 -123 -120 -113 -94 -116 -133 -144 -150 -152 -152 -153 -162 -164 -174 -181 -182 -190 -192 -193 -193 -194 -196 -200 -202 -201 -199 -197 -196 -195 -194 -195 -196 -197 -200 -200 -198 -195 -192 -193 -193 -193 -193 -190 -188 -186 -180 -175 -174 -175 -178 -180 -179 -174 -168 -163 -161 -162 -163 -165 -166 -166 -166 -167 -170 -172 -173 -174 -175 -176 -177 -178 -179 -180 -180 -179 -179 -179 -178 -177 -177 -176 -175 -174 -173 -171 -170 -169 -167 -172 -177 -181 -181 -182 -185 -183 -180 -176 -172 -167 -165 -167 -170 -174 -175 -180 -184 -180 -179 -179 -179 -179 -179 -179 -178 -177 -178 -181 -185 -189 -194 -201 -208 -207 -207 -205 -203 -203 -202 -200 -194 -189 -185 -182 -179 -180 -184 -188 -193 -197 -199 -200 -201 -200 -198 -196 -194 -192 -191 -188 -186 -183 -178 -186 -190 -189 -188 -187 -188 -188 -187 -185 -184 -184 -183 -182 -182 -181 -181 -183 -186 -187 -186 -187 -190 -190 -191 -191 -191 -193 -194 -193 -191 -190 -190 -189 -190 -190 -192 -194 -197 -198 -198 -200 -201 -203 -204 -204 -203 -202 -201 -200 -198 -195 -194 -193 -192 -189 -189 -186 -180 -173 -179 -182 -182 -185 -188 -190 -190 -188 -184 -186 -185 -182 -186 -187 -186 -187 -187 -186 -187 -187 -185 -185 -184 -179 -173 -177 -180 -181 -184 -184 -183 -183 -182 -179 -177 -177 -177 -177 -176 -175 -173 -173 -172 -171 -171 -172 -172 -176 -179 -181 -184 -185 -187 -188 -189 -189 -189 -191 -192 -193 -193 -193 -193 -192 -191 -191 -192 -191 -189 -186 -185 -183 -181 -179 -181 -182 -183 -183 -183 -180 -183 -184 -183 -185 -182 -180 -177 -176 -174 -172 -171 -169 -167 -165 -163 -161 -160 -161 -161 -161 -160 -159 -158 -158 -157 -155 -149 -135 -142 -144 -143 -145 -137 -117 -137 -149 -146 -141 -130 -123 -118 -114 -112 -110 -109 -109 -110 -112 -113 -111 -113 -114 -114 -111 -111 -107 -110 -81 -85 -86 -87 -90 -95 -101 -97 -94 -92 -88 -86 -85 -84 -85 -85 -84 -85 -85 -86 -90 -88 -86 -84 -82 -81 -81 -80 -80 -81 -83 -84 -79 -79 -78 -77 -75 -76 -79 -84 -88 -89 -90 -89 -88 -87 -83 -81 -79 -82 -83 -86 -88 -89 -90 -90 -90 -91 -92 -90 -92 -92 -89 -86 -83 -78 -72 -75 -77 -78 -79 -79 -79 -79 -79 -78 -77 -74 -66 -74 -77 -78 -79 -79
160 129 132 138 142 157 169 182 219 253 246 231 200 194 194 190 202 172 140 147 168 179 161 153 143 124 124 108 111 111 94 90 86 80 93 115 119 105 74 81 96 93 78 72 65 67 58 54 46 50 52 38 44 54 47 41 33 23 21 28 27 31 31 33 14 7 17 29 3 11 15 11 8 16 17 25 29 20 14 11 15 17 14 7 9 18 11 17 21 30 32 24 12 1 -7 -12 -16 -22 -22 -30 -29 -32 -27 -26 -22 -22 -25 -27 -27 -22 -35 -28 -43 -48 -49 -54 -59 -61 -72 -76 -78 -73 -81 -89 -90 -91 -91 -93 -96 -107 -112 -115 -115 -117 -118 -120 -122 -124 -125 -118 -132 -137 -134 -135 -141 -144 -144 -142 -147 -149 -149 -155 -151 -147 -138 -136 -133 -116 -93 -90 -81 -57 -52 -53 -58 -63 -70 -80 -97 -116 -131 -145 -153 -158 -165 -172 -174 -178 -173 -173 -175 -176 -177 -176 -177 -176 -176 -175 -175 -175 -174 -173 -170 -169 -166 -161 -157 -156 -153 -142 -136 -130 -125 -115 -107 -98 -91 -84 -80 -77 -76 -77 -78 -78 -77 -70 -63 -60 -60 -56 -55 -59 -61 -64 -82 -106 -121 -127 -127 -127 -126 -113 -119 -133 -146 -152 -153 -158 -162 -177 -188 -189 -188 -181 -191 -194 -196 -197 -199 -201 -204 -204 -203 -201 -198 -197 -195 -193 -194 -196 -200 -202 -203 -200 -197 -190 -191 -190 -189 -188 -188 -187 -184 -176 -169 -173 -176 -177 -177 -176 -173 -166 -163 -163 -165 -166 -167 -168 -168 -169 -170 -173 -175 -176 -175 -177 -177 -179 -181 -182 -184 -183 -181 -180 -179 -177 -175 -174 -174 -173 -173 -171 -170 -167 -164 -158 -167 -176 -180 -180 -181 -185 -185 -182 -177 -173 -168 -163 -165 -168 -173 -172 -178 -181 -179 -179 -180 -180 -180 -180 -181 -180 -179 -179 -182 -185 -186 -191 -199 -205 -206 -207 -204 -202 -202 -203 -204 -199 -196 -193 -190 -186 -182 -185 -188 -192 -198 -199 -201 -203 -204 -202 -201 -200 -197 -193 -191 -190 -189 -190 -192 -192 -190 -189 -187 -187 -187 -184 -180 -179 -179 -178 -176 -178 -174 -174 -180 -186 -186 -185 -184 -186 -186 -187 -189 -189 -190 -189 -189 -188 -187 -187 -187 -188 -189 -190 -192 -195 -197 -196 -197 -199 -201 -201 -202 -201 -201 -200 -198 -196 -193 -191 -190 -189 -188 -187 -185 -183 -177 -178 -181 -180 -183 -186 -189 -188 -188 -186 -188 -187 -187 -187 -186 -186 -185 -185 -185 -187 -187 -187 -184 -181 -178 -176 -178 -180 -181 -183 -184 -184 -183 -182 -180 -179 -177 -177 -176 -175 -174 -172 -171 -170 -168 -167 -166 -168 -174 -175 -178 -180 -181 -183 -184 -185 -184 -185 -187 -188 -189 -190 -190 -189 -188 -187 -187 -188 -188 -185 -182 -182 -181 -180 -180 -180 -180 -181 -181 -182 -181 -182 -183 -181 -182 -181 -178 -176 -175 -173 -171 -170 -166 -164 -164 -161 -158 -156 -159 -160 -162 -159 -158 -156 -156 -155 -154 -153 -149 -150 -147 -144 -153 -146 -139 -149 -164 -156 -149 -129 -120 -118 -115 -113 -114 -114 -116 -113 -114 -116 -110 -116 -116 -116 -114 -113 -107 -98 -89 -89 -87 -87 -91 -96 -101 -97 -95 -91 -86 -84 -84 -83 -86 -87 -86 -86 -86 -87 -87 -86 -86 -83 -81 -83 -84 -83 -82 -82 -84 -84 -75 -79 -81 -79 -75 -75 -78 -81 -87 -90 -94 -94 -92 -91 -87 -85 -79 -83 -84 -86 -90 -91 -92 -92 -91 -89 -86 -89 -97 -97 -91 -88 -84 -80 -77 -79 -77 -80 -80 -80 -80 -79 -79 -79 -80 -79 -76 -79 -79 -79 -80 -80
159 165 151 131 131 146 151 156 187 202 195 206 180 176 184 181 190 176 151 144 159 165 147 134 125 120 126 116 99 101 108 99 85 78 86 112 117 104 93 66 82 102 82 57 56 49 44 59 67 59 38 31 29 31 37 37 24 29 22 20 25 37 37 35 17 9 6 21 10 16 23 16 13 11 26 27 26 25 20 22 21 17 14 10 7 10 9 12 18 25 30 18 9 -2 -10 -14 -18 -22 -25 -29 -32 -30 -24 -22 -23 -20 -22 -33 -30 -24 -30 -30 -44 -32 -47 -52 -57 -49 -64 -74 -80 -85 -83 -78 -82 -89 -95 -106 -105 -109 -112 -114 -114 -114 -118 -121 -125 -129 -135 -132 -138 -139 -146 -146 -154 -162 -151 -154 -148 -145 -139 -136 -133 -117 -106 -105 -103 -97 -91 -78 -61 -54 -54 -57 -60 -63 -70 -81 -100 -120 -133 -143 -150 -154 -162 -168 -170 -174 -173 -174 -174 -175 -177 -177 -177 -176 -174 -174 -175 -175 -174 -173 -170 -167 -164 -160 -156 -153 -149 -141 -135 -129 -123 -114 -105 -96 -89 -84 -81 -79 -77 -77 -76 -73 -69 -65 -60 -58 -61 -61 -62 -66 -71 -77 -98 -114 -125 -130 -133 -136 -132 -132 -137 -137 -151 -150 -157 -169 -183 -192 -192 -190 -190 -189 -195 -198 -200 -201 -203 -205 -207 -209 -206 -201 -198 -196 -190 -189 -194 -200 -208 -206 -204 -201 -199 -193 -190 -188 -187 -187 -188 -184 -178 -171 -168 -171 -173 -174 -173 -173 -171 -163 -161 -160 -159 -167 -168 -169 -170 -171 -172 -177 -178 -179 -177 -178 -178 -180 -183 -184 -187 -186 -183 -182 -180 -177 -173 -171 -172 -173 -172 -171 -169 -167 -164 -164 -167 -174 -179 -181 -183 -188 -190 -184 -179 -176 -172 -167 -165 -167 -175 -178 -180 -181 -180 -181 -182 -182 -183 -185 -184 -181 -178 -178 -182 -185 -183 -188 -200 -206 -204 -204 -201 -198 -195 -198 -201 -201 -201 -200 -200 -194 -189 -190 -191 -195 -198 -200 -202 -204 -204 -203 -203 -204 -203 -201 -200 -202 -201 -203 -201 -199 -197 -193 -189 -188 -187 -183 -177 -176 -177 -176 -175 -180 -171 -173 -178 -182 -183 -183 -183 -185 -183 -182 -186 -187 -187 -187 -186 -185 -186 -185 -185 -185 -185 -188 -190 -192 -194 -196 -197 -197 -198 -197 -199 -199 -199 -199 -197 -195 -192 -190 -189 -188 -187 -185 -185 -184 -179 -180 -181 -181 -182 -183 -187 -186 -187 -186 -189 -189 -189 -189 -188 -187 -185 -185 -185 -187 -187 -186 -182 -180 -179 -179 -180 -183 -183 -185 -185 -185 -185 -185 -184 -183 -181 -178 -177 -175 -172 -170 -170 -168 -167 -166 -165 -166 -168 -172 -174 -177 -177 -179 -180 -180 -181 -182 -183 -184 -185 -186 -186 -186 -184 -184 -182 -182 -182 -181 -179 -179 -179 -179 -178 -178 -178 -179 -180 -181 -181 -181 -180 -179 -179 -178 -177 -175 -173 -173 -170 -168 -166 -162 -159 -158 -156 -156 -158 -158 -157 -156 -157 -157 -155 -153 -151 -152 -154 -153 -154 -156 -158 -156 -155 -160 -166 -172 -159 -142 -125 -121 -116 -113 -116 -117 -120 -116 -116 -124 -115 -116 -117 -118 -115 -117 -109 -102 -97 -93 -90 -90 -92 -92 -89 -91 -90 -87 -83 -81 -83 -83 -83 -84 -85 -87 -84 -86 -85 -83 -82 -82 -85 -88 -91 -95 -85 -84 -84 -82 -79 -80 -84 -82 -74 -78 -85 -87 -91 -94 -95 -95 -94 -94 -92 -94 -87 -87 -86 -85 -84 -89 -91 -91 -92 -94 -90 -94 -101 -102 -92 -88 -86 -83 -81 -80 -81 -82 -83 -81 -80 -79 -79 -80 -83 -85 -80 -80 -79 -79 -80 -81
177 161 162 164 154 145 153 151 169 197 198 179 145 139 158 160 156 153 150 130 132 143 141 133 120 109 111 116 108 110 99 93 84 80 88 110 102 105 102 65 65 93 93 68 51 48 52 57 60 45 31 22 32 33 25 25 18 15 13 13 18 31 31 25 16 7 4 18 2 11 17 17 12 14 13 23 26 21 15 22 32 14 13 15 19 14 13 9 12 8 16 20 18 2 -15 -18 -21 -22 -24 -28 -27 -23 -17 -28 -23 -16 -18 -19 -15 -38 -31 -32 -42 -23 -39 -61 -56 -68 -57 -62 -70 -76 -72 -65 -81 -88 -99 -105 -105 -110 -112 -113 -111 -110 -117 -123 -129 -132 -136 -135 -138 -134 -128 -144 -159 -162 -147 -139 -138 -127 -105 -114 -115 -111 -97 -86 -100 -111 -103 -73 -48 -50 -53 -57 -62 -68 -75 -84 -103 -119 -132 -143 -149 -154 -159 -165 -170 -172 -172 -173 -173 -174 -177 -177 -177 -175 -174 -174 -174 -174 -173 -172 -169 -167 -164 -160 -156 -152 -148 -141 -135 -129 -123 -113 -104 -95 -88 -84 -82 -80 -78 -75 -73 -71 -69 -65 -62 -66 -70 -70 -74 -80 -85 -92 -110 -119 -127 -131 -128 -122 -129 -134 -138 -130 -149 -156 -167 -177 -189 -197 -195 -194 -197 -196 -197 -199 -202 -204 -206 -210 -216 -224 -210 -199 -192 -186 -176 -186 -195 -206 -218 -214 -207 -200 -196 -190 -185 -185 -185 -185 -184 -178 -168 -160 -155 -161 -167 -169 -168 -167 -163 -159 -157 -158 -159 -163 -166 -168 -167 -166 -168 -174 -181 -185 -182 -181 -178 -178 -183 -187 -193 -188 -185 -183 -181 -178 -172 -169 -171 -172 -171 -170 -169 -167 -164 -165 -167 -171 -176 -179 -182 -186 -187 -183 -180 -179 -175 -171 -168 -167 -174 -178 -181 -182 -182 -182 -183 -183 -184 -185 -182 -180 -177 -176 -183 -191 -190 -193 -200 -206 -206 -205 -200 -195 -189 -193 -201 -203 -204 -205 -205 -201 -195 -195 -195 -196 -199 -200 -202 -204 -205 -205 -206 -207 -208 -205 -204 -205 -205 -203 -203 -203 -201 -198 -195 -192 -188 -185 -180 -176 -177 -178 -175 -175 -172 -173 -177 -179 -181 -181 -181 -181 -181 -182 -183 -183 -184 -184 -183 -182 -182 -182 -182 -183 -185 -187 -189 -191 -193 -194 -195 -195 -194 -192 -195 -196 -197 -197 -195 -193 -190 -189 -187 -186 -185 -185 -184 -182 -176 -167 -176 -178 -178 -177 -181 -184 -185 -187 -189 -190 -190 -190 -190 -189 -188 -185 -183 -186 -186 -184 -180 -180 -180 -180 -181 -183 -184 -185 -186 -188 -189 -191 -190 -189 -185 -181 -179 -176 -172 -168 -168 -167 -165 -164 -163 -163 -165 -169 -172 -174 -174 -175 -176 -176 -177 -178 -179 -180 -180 -182 -183 -183 -183 -183 -180 -177 -176 -178 -178 -177 -177 -177 -177 -176 -176 -177 -179 -180 -180 -180 -179 -177 -177 -177 -176 -175 -173 -172 -170 -168 -166 -163 -161 -160 -159 -159 -159 -158 -156 -156 -157 -157 -155 -154 -152 -155 -157 -159 -160 -162 -163 -163 -165 -170 -176 -169 -152 -138 -125 -120 -115 -114 -115 -116 -116 -115 -115 -119 -117 -118 -118 -116 -111 -117 -112 -109 -112 -99 -88 -87 -88 -83 -86 -86 -79 -83 -83 -80 -81 -81 -81 -81 -82 -83 -79 -82 -84 -83 -83 -82 -88 -91 -94 -95 -88 -85 -84 -83 -83 -87 -86 -84 -81 -84 -92 -102 -100 -99 -97 -95 -93 -94 -93 -94 -92 -91 -89 -84 -79 -89 -91 -92 -92 -93 -94 -98 -106 -100 -86 -88 -87 -86 -83 -81 -82 -82 -82 -81 -81 -79 -78 -85 -97 -89 -83 -81 -79 -78 -81 -82
173 185 174 181 171 160 161 156 182 204 218 189 147 118 149 154 141 128 124 125 161 176 188 168 153 143 129 110 112 127 119 107 81 80 80 102 105 91 83 69 65 65 54 53 54 59 61 56 42 30 35 32 32 33 29 20 17 19 14 13 7 9 9 11 3 1 3 8 -2 6 17 39 25 22 16 13 18 13 16 22 21 16 17 21 23 22 27 28 28 19 6 6 -6 -12 -19 -22 -25 -21 -21 -26 -23 -22 -20 -25 -24 -25 -21 -21 -30 -28 -23 -33 -41 -51 -44 -58 -60 -45 -33 -37 -64 -80 -87 -91 -99 -102 -104 -95 -99 -111 -114 -114 -112 -118 -123 -124 -124 -130 -134 -137 -140 -130 -119 -146 -168 -158 -132 -132 -128 -125 -119 -121 -139 -130 -123 -125 -112 -102 -96 -71 -46 -46 -54 -62 -68 -77 -87 -98 -111 -124 -134 -141 -146 -152 -156 -163 -168 -170 -171 -172 -172 -174 -175 -174 -173 -173 -172 -173 -173 -172 -172 -170 -168 -166 -164 -161 -157 -152 -147 -140 -134 -127 -121 -111 -102 -92 -87 -84 -81 -81 -79 -74 -71 -71 -72 -72 -76 -80 -85 -90 -94 -98 -102 -109 -116 -122 -128 -129 -128 -128 -133 -140 -148 -150 -164 -169 -176 -182 -191 -192 -192 -196 -205 -200 -198 -197 -202 -205 -206 -207 -207 -205 -203 -196 -192 -188 -192 -197 -195 -201 -202 -204 -201 -196 -191 -185 -179 -181 -184 -184 -182 -175 -159 -150 -139 -151 -161 -163 -161 -157 -150 -150 -151 -153 -155 -158 -160 -162 -161 -157 -159 -167 -175 -179 -181 -180 -177 -175 -181 -185 -187 -186 -185 -184 -183 -180 -175 -172 -171 -172 -170 -170 -169 -169 -168 -165 -167 -172 -174 -177 -179 -179 -180 -181 -180 -180 -178 -174 -171 -170 -173 -177 -181 -183 -184 -183 -182 -183 -183 -182 -179 -178 -175 -175 -184 -202 -196 -196 -201 -207 -209 -209 -204 -198 -194 -198 -204 -204 -205 -206 -207 -207 -202 -200 -199 -199 -199 -200 -202 -204 -205 -206 -208 -210 -210 -206 -203 -202 -202 -200 -202 -204 -205 -203 -201 -198 -192 -188 -186 -186 -181 -177 -173 -171 -171 -173 -175 -177 -178 -178 -177 -176 -176 -177 -178 -179 -181 -180 -179 -178 -178 -177 -178 -181 -184 -186 -187 -189 -191 -192 -193 -193 -192 -191 -192 -194 -195 -194 -193 -191 -190 -189 -185 -186 -185 -185 -185 -184 -182 -183 -182 -179 -180 -179 -179 -184 -185 -188 -191 -191 -192 -193 -193 -192 -191 -189 -188 -188 -187 -185 -180 -181 -182 -182 -183 -184 -186 -186 -186 -187 -190 -196 -195 -196 -189 -186 -184 -180 -176 -172 -170 -166 -163 -161 -161 -161 -162 -165 -168 -169 -170 -170 -172 -173 -173 -174 -174 -176 -177 -179 -181 -183 -185 -184 -182 -177 -175 -178 -180 -180 -177 -176 -175 -175 -174 -175 -177 -179 -179 -179 -178 -175 -176 -176 -177 -175 -172 -173 -171 -168 -168 -166 -165 -163 -163 -162 -162 -159 -156 -157 -158 -159 -158 -158 -157 -160 -163 -164 -165 -166 -166 -167 -169 -174 -172 -162 -141 -131 -122 -121 -120 -116 -115 -113 -113 -112 -113 -116 -117 -119 -119 -119 -116 -118 -112 -106 -101 -97 -85 -97 -95 -92 -91 -91 -90 -88 -87 -85 -84 -81 -80 -82 -82 -84 -83 -85 -86 -86 -85 -84 -89 -94 -94 -93 -90 -87 -85 -83 -83 -83 -84 -84 -83 -85 -90 -99 -101 -100 -98 -95 -92 -92 -93 -95 -95 -95 -92 -86 -85 -88 -88 -87 -90 -92 -93 -97 -102 -102 -95 -95 -91 -88 -85 -82 -81 -81 -81 -78 -81 -78 -78 -81 -85 -85 -83 -82 -81 -81 -83 -84
164 192 193 223 174 161 157 156 180 204 179 153 133 111 126 133 130 112 102 128 172 185 203 225 171 156 148 163 119 115 117 104 84 85 81 88 100 85 77 67 57 49 46 52 55 55 45 41 37 40 35 35 33 29 32 29 20 27 29 27 22 13 13 5 -7 4 -7 -5 2 -4 3 10 18 29 32 28 16 20 16 9 11 14 24 26 27 25 21 22 22 26 19 11 -10 -17 -18 -21 -23 -21 -22 -25 -23 -24 -26 -30 -29 -31 -32 -28 -32 -25 -22 -28 -34 -47 -37 -36 -57 -39 -66 -62 -81 -86 -90 -96 -102 -105 -109 -110 -110 -114 -117 -119 -118 -123 -128 -130 -131 -133 -136 -137 -141 -143 -149 -160 -175 -170 -157 -148 -148 -135 -141 -138 -133 -129 -117 -100 -100 -93 -95 -58 -48 -51 -59 -72 -83 -91 -101 -107 -117 -126 -135 -143 -148 -151 -156 -160 -164 -167 -169 -170 -171 -173 -173 -173 -172 -172 -172 -172 -172 -172 -170 -168 -166 -165 -164 -161 -158 -153 -147 -140 -134 -126 -117 -109 -99 -91 -86 -84 -81 -79 -73 -71 -67 -71 -73 -78 -85 -90 -97 -101 -104 -108 -112 -117 -121 -125 -129 -132 -130 -133 -136 -144 -156 -160 -169 -172 -178 -182 -188 -189 -191 -194 -199 -199 -197 -196 -203 -205 -204 -203 -200 -199 -201 -202 -204 -202 -198 -193 -182 -184 -188 -194 -194 -190 -183 -179 -179 -179 -179 -179 -179 -171 -154 -152 -153 -160 -160 -158 -156 -154 -146 -144 -143 -142 -144 -148 -150 -154 -153 -149 -150 -157 -166 -173 -178 -182 -179 -178 -182 -185 -185 -184 -184 -184 -184 -182 -177 -174 -172 -170 -168 -168 -168 -167 -169 -168 -169 -170 -171 -171 -174 -175 -178 -180 -181 -181 -181 -178 -175 -172 -174 -177 -181 -183 -184 -183 -181 -182 -182 -180 -175 -175 -171 -173 -182 -193 -195 -196 -199 -202 -207 -209 -204 -199 -197 -199 -203 -203 -204 -206 -209 -209 -207 -205 -203 -202 -199 -200 -202 -205 -207 -209 -211 -214 -214 -208 -203 -200 -200 -202 -204 -208 -211 -209 -208 -202 -197 -193 -191 -188 -180 -175 -169 -167 -167 -169 -174 -175 -174 -173 -171 -169 -168 -168 -172 -174 -175 -175 -174 -174 -173 -172 -174 -179 -183 -185 -186 -187 -189 -190 -191 -191 -191 -191 -191 -192 -194 -193 -191 -189 -188 -186 -180 -184 -187 -187 -187 -186 -185 -184 -185 -182 -182 -182 -185 -186 -189 -191 -193 -191 -192 -194 -196 -195 -195 -192 -190 -189 -188 -186 -181 -182 -184 -186 -187 -189 -190 -188 -186 -187 -190 -194 -197 -207 -194 -190 -188 -185 -182 -178 -172 -167 -160 -159 -157 -157 -157 -161 -164 -165 -165 -167 -168 -169 -169 -170 -170 -171 -173 -176 -178 -183 -187 -187 -186 -182 -182 -183 -184 -184 -180 -177 -175 -173 -172 -171 -171 -176 -178 -178 -177 -175 -175 -175 -176 -174 -174 -174 -174 -172 -170 -169 -168 -164 -169 -169 -167 -160 -152 -158 -161 -161 -161 -162 -163 -163 -165 -165 -167 -166 -165 -167 -168 -171 -160 -148 -135 -128 -124 -120 -120 -112 -112 -110 -111 -111 -111 -117 -119 -122 -120 -117 -116 -117 -113 -109 -102 -102 -97 -102 -99 -96 -95 -92 -93 -93 -93 -91 -89 -87 -86 -86 -86 -88 -88 -87 -89 -88 -87 -88 -92 -96 -97 -97 -95 -93 -87 -84 -85 -85 -83 -83 -83 -84 -86 -89 -95 -97 -97 -97 -95 -94 -93 -97 -98 -100 -93 -85 -83 -83 -85 -87 -90 -92 -92 -98 -105 -103 -97 -95 -91 -91 -87 -82 -77 -80 -80 -79 -79 -77 -77 -79 -84 -86 -87 -88 -88 -86 -85 -85
179 172 201 214 189 164 159 157 172 177 182 165 148 121 91 96 114 107 101 120 146 191 206 162 185 150 123 133 119 98 107 95 87 114 101 90 87 79 71 57 48 52 54 71 55 34 30 32 32 38 32 32 31 26 23 17 23 27 27 24 30 25 25 13 -4 9 10 14 12 10 7 1 12 24 28 23 24 23 20 9 7 20 23 24 24 25 22 14 21 21 12 1 -14 -20 -18 -18 -19 -20 -21 -27 -27 -33 -34 -30 -24 -26 -19 -42 -29 -19 -26 -41 -14 -37 -42 -57 -70 -63 -74 -66 -75 -74 -88 -96 -103 -106 -110 -113 -116 -120 -124 -122 -118 -121 -126 -132 -138 -136 -133 -135 -139 -143 -154 -163 -174 -176 -166 -163 -143 -110 -118 -120 -95 -87 -104 -107 -129 -118 -87 -48 -45 -52 -74 -94 -104 -107 -108 -111 -113 -124 -135 -145 -150 -154 -158 -161 -164 -166 -167 -167 -168 -171 -171 -172 -171 -171 -172 -173 -172 -171 -168 -164 -164 -163 -163 -161 -157 -153 -146 -139 -132 -124 -115 -107 -99 -92 -87 -85 -82 -78 -75 -74 -71 -76 -80 -84 -93 -98 -104 -109 -111 -115 -118 -122 -126 -130 -134 -137 -138 -141 -144 -151 -159 -163 -168 -171 -176 -179 -182 -184 -186 -191 -195 -197 -199 -203 -204 -203 -202 -201 -200 -202 -204 -207 -206 -199 -191 -178 -156 -168 -175 -181 -185 -186 -182 -178 -177 -175 -174 -174 -177 -172 -162 -158 -158 -160 -155 -150 -149 -151 -148 -143 -139 -136 -133 -136 -137 -138 -138 -139 -143 -149 -159 -166 -171 -177 -178 -178 -180 -183 -183 -184 -186 -186 -185 -184 -182 -179 -176 -173 -171 -170 -168 -164 -166 -168 -170 -172 -172 -173 -175 -176 -178 -180 -181 -183 -186 -181 -177 -175 -175 -178 -183 -184 -185 -185 -183 -183 -181 -179 -174 -170 -164 -169 -178 -187 -191 -193 -197 -201 -206 -207 -203 -200 -198 -198 -200 -201 -202 -205 -211 -212 -212 -209 -207 -204 -201 -201 -203 -205 -207 -209 -214 -219 -218 -211 -204 -200 -200 -201 -207 -212 -217 -216 -212 -206 -200 -196 -194 -191 -185 -179 -171 -165 -167 -167 -171 -172 -171 -167 -164 -164 -163 -160 -166 -169 -169 -169 -169 -171 -170 -171 -174 -177 -180 -183 -184 -185 -187 -189 -189 -190 -190 -189 -190 -191 -193 -192 -191 -189 -188 -187 -185 -186 -189 -190 -189 -188 -186 -181 -187 -186 -185 -184 -186 -189 -191 -191 -189 -183 -187 -191 -194 -193 -193 -192 -191 -190 -189 -187 -184 -185 -186 -188 -189 -190 -191 -191 -190 -191 -194 -197 -199 -202 -196 -194 -192 -188 -185 -182 -175 -169 -162 -161 -159 -157 -157 -160 -163 -164 -164 -165 -166 -166 -166 -168 -168 -169 -172 -179 -179 -183 -188 -189 -189 -188 -188 -189 -189 -189 -186 -181 -176 -174 -171 -170 -171 -175 -177 -177 -176 -175 -175 -174 -174 -174 -174 -175 -175 -174 -172 -171 -170 -169 -171 -172 -170 -164 -160 -160 -162 -164 -165 -165 -165 -165 -164 -161 -162 -162 -161 -164 -158 -151 -135 -133 -127 -129 -129 -126 -122 -115 -111 -106 -113 -114 -117 -122 -125 -131 -120 -116 -114 -114 -114 -111 -106 -105 -102 -105 -104 -103 -101 -98 -98 -98 -97 -96 -96 -94 -93 -94 -93 -93 -92 -91 -91 -91 -91 -92 -95 -99 -101 -102 -97 -93 -88 -87 -87 -86 -83 -79 -83 -86 -88 -88 -89 -88 -91 -92 -93 -91 -85 -98 -99 -98 -91 -82 -81 -81 -83 -89 -90 -91 -97 -103 -109 -103 -95 -93 -95 -95 -91 -85 -79 -80 -79 -77 -75 -76 -77 -79 -84 -86 -87 -88 -88 -88 -89 -89
175 203 220 220 212 205 192 163 158 149 150 163 171 154 133 102 89 89 99 113 147 179 171 155 192 199 136 114 98 87 90 84 114 143 136 108 88 74 62 64 53 56 62 51 39 37 34 31 37 37 33 29 27 24 20 12 21 26 33 26 27 26 26 10 -4 9 22 23 25 20 21 17 6 2 8 8 22 24 12 12 5 19 16 20 20 22 23 12 3 8 1 -9 -15 -15 -18 -17 -15 -18 -20 -26 -29 -34 -22 -31 -32 -40 -47 -48 -45 -46 -51 -42 -35 -62 -51 -67 -76 -73 -77 -74 -80 -74 -88 -87 -103 -107 -110 -114 -119 -123 -125 -126 -116 -123 -126 -131 -136 -138 -136 -135 -141 -147 -152 -162 -175 -177 -163 -159 -151 -138 -131 -135 -135 -126 -111 -100 -89 -89 -77 -52 -48 -56 -81 -99 -107 -109 -111 -112 -113 -125 -135 -144 -152 -158 -163 -167 -168 -169 -168 -168 -169 -171 -171 -171 -171 -171 -171 -171 -171 -170 -168 -165 -162 -162 -162 -160 -157 -152 -145 -137 -132 -123 -114 -107 -100 -96 -93 -90 -86 -85 -85 -85 -83 -86 -89 -95 -101 -105 -110 -114 -117 -121 -123 -127 -131 -135 -139 -144 -146 -148 -150 -156 -159 -163 -167 -169 -173 -176 -178 -179 -182 -187 -192 -195 -198 -200 -200 -200 -200 -200 -200 -205 -202 -203 -198 -190 -184 -174 -162 -167 -167 -174 -178 -186 -182 -179 -175 -173 -171 -172 -176 -176 -168 -161 -159 -153 -145 -138 -138 -142 -143 -140 -136 -132 -126 -125 -125 -124 -126 -129 -136 -145 -153 -159 -163 -169 -172 -174 -177 -179 -181 -183 -186 -186 -186 -186 -186 -183 -181 -180 -176 -174 -172 -169 -168 -170 -172 -175 -175 -177 -176 -177 -179 -180 -182 -183 -185 -182 -179 -176 -175 -178 -183 -185 -187 -186 -184 -183 -182 -179 -175 -173 -170 -174 -179 -185 -188 -190 -195 -201 -205 -205 -202 -200 -198 -198 -199 -199 -199 -203 -210 -213 -212 -212 -211 -205 -203 -201 -202 -204 -205 -207 -214 -220 -220 -213 -205 -204 -204 -205 -209 -213 -217 -222 -213 -203 -199 -197 -195 -193 -190 -186 -180 -173 -171 -171 -171 -171 -170 -166 -163 -162 -161 -158 -165 -167 -166 -167 -168 -170 -171 -173 -175 -177 -178 -180 -182 -184 -186 -188 -188 -188 -189 -188 -189 -190 -192 -192 -191 -190 -190 -190 -189 -190 -191 -194 -191 -189 -187 -186 -189 -187 -185 -184 -187 -187 -186 -187 -187 -184 -185 -187 -189 -189 -190 -191 -190 -190 -190 -189 -188 -188 -189 -190 -190 -191 -193 -194 -194 -196 -199 -202 -200 -200 -196 -193 -192 -189 -187 -183 -179 -174 -168 -167 -165 -164 -163 -163 -165 -165 -165 -165 -164 -162 -165 -168 -170 -171 -173 -176 -178 -183 -188 -191 -192 -194 -194 -194 -194 -194 -191 -186 -180 -177 -173 -173 -174 -176 -177 -177 -176 -176 -175 -175 -175 -175 -175 -176 -176 -175 -174 -174 -172 -171 -172 -173 -171 -169 -166 -165 -165 -166 -167 -167 -166 -164 -162 -161 -156 -153 -149 -150 -145 -138 -134 -130 -118 -126 -133 -133 -124 -120 -118 -116 -121 -116 -117 -121 -123 -120 -115 -113 -110 -106 -114 -113 -109 -108 -103 -106 -109 -109 -108 -102 -103 -103 -100 -99 -103 -100 -99 -102 -101 -99 -97 -96 -96 -94 -95 -98 -99 -103 -102 -103 -97 -90 -89 -89 -90 -90 -89 -86 -86 -87 -87 -86 -85 -79 -86 -88 -92 -95 -91 -96 -99 -98 -93 -86 -84 -83 -84 -86 -89 -90 -103 -109 -109 -103 -90 -94 -99 -102 -97 -89 -83 -82 -80 -78 -75 -75 -77 -80 -85 -87 -87 -85 -86 -88 -90 -89
